# .PCD v0.7 - Point Cloud Data file format
VERSION 0.7
FIELDS x y z
SIZE 4 4 4
TYPE F F F
COUNT 1 1 1
WIDTH 1498
HEIGHT 1
VIEWPOINT 0 0 0 1 0 0 0
POINTS 1498
DATA ascii
-0.22871511 0.58656603 2.5912917
-0.21632355 0.58592117 2.5889931
-0.19210181 0.58609915 2.5907848
-0.17984891 0.58574337 2.5896683
-0.13175859 0.58776915 2.6001627
-0.11941492 0.58695394 2.5968707
0.2700136 0.58784491 2.5971549
0.32001284 0.59029263 2.6053503
0.33231702 0.59044707 2.6052792
0.43000695 0.59037656 2.5973506
0.45733142 0.59414274 2.6115096
0.51912111 0.59454376 2.6062517
0.5538494 0.59224457 2.5912409
0.59565341 0.59733528 2.6079326
0.64582527 0.59807122 2.602679
0.67305022 0.60031211 2.6077187
0.6858018 0.60061932 2.6065755
0.69887435 0.60119277 2.6065023
0.71213317 0.60190451 2.60694
0.72612733 0.60320371 2.6098289
0.74081242 0.60502452 2.6148748
0.83434236 0.60949129 2.6117582
0.84766912 0.6100328 2.6105223
0.86178088 0.61111623 2.6115105
0.8748132 0.61141515 2.6090529
0.88778126 0.61166251 2.6062908
0.9011178 0.6121543 2.6044846
0.93016171 0.61466777 2.6071157
0.9620195 0.61886275 2.6165099
0.97602433 0.61965805 2.6155746
0.98943621 0.62006235 2.612927
1.0025696 0.62028521 2.6094637
1.0334681 0.62351245 2.6140809
1.0597357 0.62386155 2.6065006
1.0750688 0.62531084 2.6080213
1.0902863 0.62666023 2.6091213
1.1052965 0.62786174 2.6096165
1.1524544 0.63247728 2.6155157
1.1669127 0.63326484 2.6145077
1.1811535 0.63391936 2.6130559
1.2075461 0.63409179 2.6058786
1.2234116 0.63556314 2.608223
1.2560039 0.63885415 2.6148868
1.3184421 0.63731635 2.5958889
1.3965664 0.64315832 2.6146126
1.4099653 0.64324629 2.6149893
-1.3268076 0.64895457 2.5747404
-1.3133636 0.64879608 2.5756056
-1.2767123 0.65017891 2.5875089
-1.2499113 0.64992136 2.5922201
-1.1377438 0.63864022 2.5737624
-1.1242663 0.63832891 2.5768986
-1.1093343 0.63717562 2.5767181
-1.0697783 0.63667125 2.5884669
-1.0222746 0.63122761 2.580235
-1.0085535 0.63064396 2.5824659
-0.9950034 0.63015431 2.5850494
-0.98109847 0.62942487 2.5866063
-0.96563458 0.62766349 2.5838609
-0.9514333 0.62668747 2.5842779
-0.9379949 0.62619472 2.5866203
-0.90916073 0.62382704 2.5853596
-0.89540136 0.6230517 2.586293
-0.88176841 0.62234396 2.5874207
-0.865982 0.62007415 2.5819547
-0.79966784 0.61740988 2.5893605
-0.78603172 0.61653489 2.589123
-0.77207941 0.61538017 2.58761
-0.75990039 0.61562455 2.591887
-0.74618953 0.61461592 2.5907955
-0.73178458 0.61299193 2.5870085
-0.71905327 0.61273849 2.5889091
-0.69458395 0.61308265 2.5960479
-0.68190521 0.61286563 2.5978425
-0.5920341 0.60995084 2.6021328
-0.55009764 0.60466963 2.5855517
-0.53828007 0.60517919 2.5895758
-0.50007814 0.60354137 2.5876973
-0.43880495 0.60350531 2.594871
-0.42614442 0.60292333 2.5936644
-0.41366285 0.60256797 2.5933774
-0.40083927 0.60167783 2.5907347
-0.38942024 0.60290647 2.5971658
-0.37615985 0.60127175 2.5912132
-0.30254686 0.60051012 2.5935118
-0.29027289 0.60033584 2.5935431
-0.27845037 0.60112083 2.5976801
-0.2416978 0.60075748 2.5981243
-0.21649949 0.59852141 2.589617
-0.2045223 0.59902555 2.5923307
0.2701802 0.60042781 2.5974679
0.28294918 0.60168678 2.6023006
0.29463333 0.60063124 2.5970852
0.32011038 0.60273552 2.6047616
0.33222914 0.60254914 2.603184
0.34404832 0.60185301 2.5993636
0.44387779 0.60488957 2.6042738
0.50692517 0.60699981 2.6064968
0.519252 0.60703433 2.6050937
0.58314937 0.60956424 2.6071846
0.65897369 0.61121184 2.6013279
0.68635172 0.61356926 2.6064219
0.69979358 0.61446989 2.6076517
0.71289772 0.61504847 2.6074264
0.72670382 0.61620355 2.6095529
0.77804756 0.61738378 2.6025929
0.79192978 0.61847538 2.6039836
0.80656624 0.62011379 2.6075752
0.82028913 0.62101173 2.6079533
0.83409601 0.62194616 2.6083884
0.84900379 0.62366265 2.6120031
0.86242622 0.62425512 2.6108129
0.8767609 0.62548214 2.6121836
0.96354616 0.63269478 2.6178865
0.98957849 0.63300711 2.6105328
1.0040957 0.63410699 2.610671
1.0210264 0.63668531 2.616837
1.0356103 0.63775557 2.6167538
1.0758848 0.63875502 2.6073501
1.0899609 0.63945675 2.605736
1.1044905 0.64040613 2.6051569
1.1189255 0.64128041 2.6043122
1.1536112 0.64623094 2.615772
1.1689219 0.6474992 2.6167223
1.2080295 0.64748734 2.6049445
1.2225599 0.64827782 2.604547
1.256548 0.65236956 2.6144106
1.3527404 0.65444028 2.608011
-1.3270456 0.66222239 2.5745902
-1.295231 0.66611475 2.5946896
-1.2369504 0.6631946 2.5941181
-1.1974896 0.65598941 2.5727775
-1.1673197 0.65366912 2.5712929
-1.1257503 0.65212864 2.5777745
-1.1100725 0.65052515 2.5758333
-1.0840372 0.65039784 2.5843503
-1.069477 0.64939618 2.5849547
-1.0548042 0.64830154 2.5852065
-1.0248182 0.64562851 2.5837691
-0.96718729 0.64142054 2.5850794
-0.95173991 0.63960117 2.5821781
-0.92590922 0.63931119 2.5896993
-0.91104746 0.63779825 2.5878115
-0.89689875 0.63674963 2.5877206
-0.88273811 0.63566279 2.5873868
-0.86774027 0.63393348 2.5843422
-0.85341847 0.63265485 2.5830359
-0.80053878 0.6306175 2.5894525
-0.78709328 0.62988836 2.5899215
-0.77393347 0.62936854 2.591156
-0.760409 0.62853068 2.5909855
-0.74785113 0.62847751 2.5939579
-0.71879691 0.62494308 2.5854557
-0.68354023 0.62679499 2.6016259
-0.6530543 0.62150431 2.5848742
-0.63999999 0.62082958 2.5845482
-0.62715858 0.62033933 2.5849061
-0.61368465 0.61919165 2.5824404
-0.57732517 0.61981791 2.5915565
-0.56531912 0.62017053 2.5950539
-0.55138505 0.61837691 2.5894957
-0.53941137 0.61875045 2.5929394
-0.47536093 0.61549717 2.5876791
-0.42722568 0.61670995 2.5984099
-0.38902128 0.61450052 2.5927432
-0.37693983 0.61473441 2.5948448
-0.36465415 0.61463988 2.5955117
-0.3412891 0.61661053 2.6058335
-0.3146773 0.61256695 2.5905561
-0.30268431 0.6129595 2.5930595
-0.29049706 0.61297548 2.5939293
-0.26567185 0.61197346 2.5911751
-0.25335312 0.61162692 2.5903938
-0.24160662 0.61269677 2.5955749
0.17252012 0.61186135 2.5965383
0.20848945 0.61032099 2.5888431
0.28268492 0.61335999 2.5984948
0.29493767 0.6134882 2.5983694
0.33236134 0.61505389 2.6027501
0.34473646 0.61532611 2.6030669
0.35654253 0.6146 2.5991182
0.44426242 0.61772573 2.6048229
0.49531627 0.62020499 2.609792
0.50700295 0.61943644 2.605041
0.51944745 0.61960924 2.6041882
0.53206539 0.61997718 2.6040907
0.60772163 0.62183738 2.6005921
0.63467228 0.62407124 2.6055732
0.64740276 0.62440711 2.6046791
0.66067749 0.62524664 2.6058035
0.72702086 0.62899983 2.6082683
0.75386459 0.6305902 2.6089919
0.77861965 0.6303916 2.6019592
0.79347259 0.63227105 2.6064732
0.80816114 0.63396436 2.6101153
0.82168621 0.63470817 2.60975
0.83560002 0.63572633 2.6104183
0.84976459 0.63690341 2.6116431
0.86408913 0.6381653 2.6131201
0.87806904 0.63914102 2.6133313
0.89200151 0.64005619 2.6132059
0.95037842 0.64527941 2.6182139
0.98955995 0.64585161 2.6076636
1.0049205 0.64751691 2.6100013
1.0357612 0.6508022 2.6143508
1.051055 0.65230751 2.6159236
1.091673 0.65346605 2.6071978
1.1049628 0.65368867 2.6036978
1.1207248 0.65535295 2.6059871
1.1384805 0.65813285 2.612762
1.154133 0.65964884 2.6145854
1.1691874 0.66079402 2.6150362
1.1835061 0.66150367 2.6138837
1.2073305 0.66024768 2.601486
1.2238868 0.66215366 2.6055429
1.2404729 0.66403604 2.6096957
1.2545543 0.66455305 2.6086979
1.4023378 0.6662516 2.6011786
-1.3564867 0.67696458 2.5788574
-1.3440484 0.67732674 2.5806947
-1.1975341 0.66904581 2.5708995
-1.1826454 0.66798693 2.5704246
-1.1275767 0.66616452 2.5794284
-1.1125855 0.66495252 2.5790548
-1.0991807 0.66467196 2.582375
-1.0850161 0.66392028 2.5839324
-1.0694023 0.66225374 2.5819685
-1.0558277 0.66182548 2.5848594
-1.0417306 0.66105562 2.5864334
-0.96818882 0.65484524 2.5847638
-0.95256388 0.65287733 2.5814226
-0.91195071 0.65111929 2.5873978
-0.89720291 0.6496253 2.5856342
-0.80151129 0.64393353 2.5897918
-0.78805673 0.64319503 2.5903144
-0.7738629 0.64182001 2.5881748
-0.76052213 0.64111948 2.5886581
-0.74753517 0.64069927 2.5901799
-0.73442799 0.64016044 2.5911305
-0.72129667 0.63958204 2.5918288
-0.65373749 0.63452154 2.5851362
-0.60344422 0.63367701 2.5912781
-0.59080607 0.63337529 2.5922472
-0.55177706 0.63111663 2.5891521
-0.50225747 0.63075733 2.5949111
-0.42730546 0.62908322 2.5969853
-0.41529179 0.62947243 2.5998883
-0.37682182 0.62675285 2.5922179
-0.35295948 0.62779987 2.5986824
-0.31497473 0.62532562 2.5912867
-0.30285084 0.62547863 2.5927832
-0.29020575 0.6245231 2.5896428
-0.27809873 0.62469238 2.5911248
-0.25419787 0.62585104 2.597378
-0.24158517 0.62480521 2.593704
-0.15615883 0.62435716 2.5955384
0.17246184 0.62387532 2.5944242
0.18474659 0.6242888 2.5957768
0.22071184 0.62275541 2.5881085
0.2328586 0.62277657 2.5876987
0.2703236 0.62520581 2.596076
0.28280434 0.62586123 2.5981507
0.29491958 0.62568814 2.596746
0.30696967 0.62539721 2.5948129
0.43190464 0.62991196 2.6037717
0.44417396 0.62991345 2.6025274
0.46925446 0.63064742 2.6028881
0.50754339 0.63245463 2.6058884
0.519099 0.63153303 2.6004846
0.53225398 0.63255584 2.6030231
0.54507023 0.63313997 2.6036873
0.62144232 0.63563842 2.6020224
0.63492745 0.63676012 2.6043637
0.64881247 0.63823301 2.6080565
0.66009206 0.637137 2.6011715
0.6734851 0.63808471 2.6025519
0.68610287 0.63827789 2.6007698
0.71672213 0.64348084 2.6165414
0.75427318 0.6434983 2.6078408
0.76836336 0.64482599 2.6101227
0.79346424 0.64485627 2.6037908
0.80899268 0.64725494 2.6101093
0.82250726 0.64799476 2.6096389
0.83567256 0.64844239 2.6079016
0.85036033 0.65004158 2.6107023
0.86447757 0.65116543 2.6114984
0.87873209 0.65235996 2.6124864
0.89279604 0.65338224 2.6126962
0.92368186 0.65730798 2.6203642
0.97548002 0.65783113 2.6056442
1.0067557 0.66161299 2.6119053
1.0203738 0.66212368 2.6095197
1.035652 0.66368675 2.6112547
1.0515218 0.66558695 2.6142924
1.0640228 0.66533571 2.6088786
1.0809382 0.66781914 2.614197
1.0932666 0.66744447 2.6083508
1.1081344 0.66861182 2.6085792
1.1226064 0.66951722 2.6078403
1.1686442 0.67362946 2.6115544
1.2248623 0.67586482 2.6058235
1.2425476 0.67837834 2.6123972
1.2563828 0.67875999 2.6109817
1.2702236 0.67913741 2.6097987
1.3146988 0.68175876 2.6136069
-1.3570896 0.69045234 2.5799062
-1.2626266 0.68919784 2.5841548
-1.2477455 0.68824095 2.5830808
-1.1300919 0.68065697 2.5826552
-1.1148908 0.67931134 2.5817838
-1.1010262 0.67875862 2.5840139
-1.086778 0.67795426 2.5853603
-1.071054 0.6761992 2.5831292
-1.056091 0.67488837 2.5826237
-1.0087615 0.66914147 2.5741699
-0.9825322 0.66868758 2.5814362
-0.96771073 0.66727567 2.5804462
-0.95251364 0.66556424 2.5782425
-0.93784237 0.66417944 2.5772393
-0.91168511 0.66361439 2.5836039
-0.77379656 0.65427238 2.5851326
-0.76055151 0.65363961 2.5859675
-0.74791276 0.65351605 2.5887268
-0.73498517 0.65313184 2.5903654
-0.72141767 0.65215647 2.5895665
-0.70829082 0.6515525 2.5901499
-0.6818642 0.65011495 2.5901325
-0.66767401 0.64840806 2.5860486
-0.65426922 0.64741415 2.5847156
-0.60464686 0.64731431 2.594044
-0.59141308 0.64638257 2.5925465
-0.57958472 0.64698023 2.5971076
-0.55213147 0.64382935 2.5885513
-0.53942573 0.64336425 2.5886204
-0.5267942 0.6429683 2.5888972
-0.45058805 0.63955581 2.5849802
-0.34049603 0.63961989 2.596189
-0.31540799 0.63838106 2.5930579
-0.30292925 0.63782436 2.5916791
-0.26668048 0.63869232 2.597609
-0.25417259 0.63797063 2.5953951
-0.24183561 0.63762671 2.5946786
-0.22934857 0.6368295 2.5920799
0.1726297 0.63671809 2.5956466
0.18499424 0.63737077 2.5979288
0.27086085 0.63870537 2.5997481
0.29472718 0.63751161 2.5935214
0.36758554 0.63708502 2.5866778
0.43234044 0.64287275 2.6045763
0.49516037 0.64472443 2.6050994
0.50795114 0.64533186 2.6059778
0.51976502 0.64469993 2.6017888
0.53279799 0.64557528 2.6036177
0.54582208 0.64640152 2.6051788
0.58208883 0.64556491 2.5960906
0.60987657 0.64890969 2.6053545
0.62133461 0.64794362 2.5992751
0.63565946 0.64994752 2.605031
0.64867562 0.65056324 2.6051366
0.66215241 0.6516102 2.6068845
0.67473185 0.65175277 2.6049311
0.68728197 0.65186352 2.6027687
0.740655 0.65508521 2.6043394
0.75534689 0.65699953 2.6089094
0.78085953 0.65738809 2.6041155
0.79608136 0.65961766 2.609642
0.81018418 0.66086626 2.611187
0.85091561 0.66316718 2.6095645
0.86527079 0.66448903 2.6110289
0.87886566 0.66519845 2.6099989
0.92445034 0.67069852 2.6196067
0.97591347 0.6709708 2.6038775
0.99455905 0.67495972 2.6150284
1.0088991 0.67596358 2.6145556
1.0231813 0.67690516 2.6138122
1.0372368 0.67767626 2.6123934
1.051988 0.67887866 2.6126289
1.0662715 0.67975485 2.611614
1.0788507 0.67953777 2.6064262
1.0948504 0.68145585 2.609462
1.108898 0.68212944 2.6077771
1.1232421 0.6829688 2.6067934
1.1819119 0.68690217 2.6060679
1.1979945 0.68864757 2.6091185
1.226369 0.68989658 2.6072745
1.2587103 0.69328105 2.6143517
1.2705441 0.69255781 2.609149
1.285584 0.69357967 2.6107926
1.3004991 0.69451451 2.6123896
1.3155117 0.69548285 2.614408
1.33042 0.69637752 2.6164567
-1.33983 0.70149481 2.5721343
-1.2627863 0.70245242 2.5832188
-1.249409 0.70232397 2.5850925
-1.2336769 0.70085561 2.5823042
-1.1907415 0.69876069 2.5838981
-1.1649826 0.69900751 2.5920806
-1.1301609 0.69370538 2.5802991
-1.1152301 0.69250286 2.5799606
-1.1011382 0.69179964 2.5815811
-1.0867127 0.69086814 2.5824304
-1.0731374 0.69046193 2.585309
-1.0580004 0.6890294 2.5843909
-1.0260402 0.68493289 2.5779743
-1.0121298 0.6842069 2.5797389
-0.996472 0.68226653 2.5769083
-0.98293734 0.68174887 2.5794251
-0.96962416 0.68137372 2.5824544
-0.9537499 0.67916554 2.5784895
-0.93876976 0.67754346 2.5766864
-0.88742244 0.67713827 2.5920327
-0.79170489 0.67135847 2.5964966
-0.77521336 0.66800016 2.5869637
-0.76209056 0.66748255 2.5883265
-0.74863261 0.66664958 2.5883756
-0.73595333 0.66649389 2.5909643
-0.72288179 0.66597188 2.5920401
-0.70845729 0.66416371 2.5880144
-0.69496989 0.66318536 2.587126
-0.68259495 0.66325277 2.5902295
-0.66901624 0.66213149 2.5886035
-0.65606141 0.66159749 2.5891855
-0.59211987 0.65952569 2.5931983
-0.58003664 0.65986145 2.5967157
-0.47689995 0.65430522 2.5897901
-0.46413836 0.65363061 2.588696
-0.42600045 0.65160048 2.5850194
-0.41602772 0.65515906 2.6004865
-0.34115434 0.65309936 2.599298
-0.27945426 0.65218049 2.600172
-0.25416866 0.65014076 2.593555
-0.24178289 0.64965707 2.5923243
-0.22947972 0.64935553 2.5917823
-0.2171821 0.64903682 2.5911338
-0.2048452 0.6485557 2.5897999
-0.1688928 0.65077049 2.6002038
-0.15660092 0.65046018 2.5994165
-0.1441554 0.6494047 2.5956173
0.22194128 0.65074539 2.5996604
0.23432843 0.65124375 2.6011207
0.25892189 0.65164787 2.6015623
0.27136704 0.65218097 2.6030462
0.28351304 0.65198141 2.6015661
0.32059285 0.65278739 2.6024818
0.50888115 0.65890658 2.6086659
0.5212118 0.65888661 2.6069169
0.53329062 0.65855777 2.6038811
0.54660869 0.65974045 2.6067541
0.59659404 0.66035259 2.6012611
0.60954314 0.66098368 2.601588
0.62297869 0.66210753 2.6037743
0.635849 0.66259962 2.6033947
0.64977109 0.66414893 2.607085
0.66259944 0.66454417 2.6061599
0.68694556 0.66402811 2.5989482
0.7279315 0.66742361 2.6038077
0.74067473 0.66765314 2.6017265
0.75559187 0.66980314 2.6070354
0.768197 0.66986805 2.604136
0.78145045 0.6704883 2.6033087
0.82679588 0.67681354 2.6175652
0.86603683 0.67781562 2.6104047
0.91186494 0.68368268 2.6212063
0.97930682 0.68619674 2.6099505
0.9937982 0.6873579 2.6100621
1.0095693 0.68936437 2.6133425
1.0236689 0.69019461 2.6121359
1.0386858 0.69161618 2.6131535
1.0532365 0.69269735 2.6128812
1.0676377 0.69365633 2.6121602
1.0813859 0.69417435 2.6098092
1.0947058 0.69440961 2.6064432
1.1093764 0.69548714 2.6062999
1.1232201 0.69602835 2.604224
1.1368604 0.69643366 2.6017363
1.166926 0.69888806 2.6032493
1.1835729 0.70103198 2.6076229
1.1987472 0.70226723 2.6087751
1.2153138 0.7042836 2.6130078
1.2404267 0.70364094 2.6047702
1.3172239 0.70970851 2.6170721
-1.2895579 0.71588349 2.5795388
-1.2507567 0.71626097 2.586518
-1.2365206 0.71563947 2.586725
-1.1763736 0.71108532 2.582485
-1.1146036 0.70509094 2.575917
-1.0598881 0.70320219 2.5860806
-0.99872887 0.69663525 2.5796521
-0.98530394 0.69620609 2.5825133
-0.97163963 0.69559479 2.5846779
-0.95626438 0.6937266 2.5821326
-0.94172519 0.69242316 2.5816357
-0.92670119 0.69072324 2.5796003
-0.90144831 0.69085586 2.588553
-0.88781708 0.69014478 2.5900254
-0.87200505 0.68769383 2.5848846
-0.85738438 0.6861245 2.5829649
-0.81735009 0.68433434 2.5876875
-0.79156125 0.68382651 2.5930071
-0.77782202 0.68281937 2.592679
-0.76335537 0.68113065 2.5896664
-0.75008368 0.68046987 2.5904655
-0.73686922 0.67983997 2.5912926
-0.72397256 0.67948699 2.5930855
-0.71043569 0.67851055 2.5924091
-0.69600672 0.67663234 2.5881913
-0.68317842 0.67627048 2.5896802
-0.67051846 0.67606533 2.5916851
-0.65666652 0.67462826 2.5888789
-0.59262419 0.67246783 2.5928769
-0.58018053 0.67240423 2.5948608
-0.56707293 0.67155194 2.5937247
-0.53988034 0.6685214 2.5860934
-0.4895651 0.66709715 2.5879014
-0.46524593 0.66747665 2.5926507
-0.4527646 0.66720802 2.5931544
-0.42709681 0.66552657 2.5895321
-0.4036819 0.66736555 2.5993831
-0.32954663 0.66666198 2.6034851
-0.31496951 0.66184592 2.5856435
-0.27949071 0.66448635 2.5986049
-0.24189603 0.66213417 2.591671
-0.18104269 0.66270047 2.5969071
-0.16898063 0.66328835 2.5997093
-0.15662551 0.66272753 2.5979741
-0.14434212 0.66240054 2.597122
-0.13217521 0.66259629 2.5982869
-0.12001456 0.662866 2.5997097
0.18579437 0.6647324 2.6062951
0.1979851 0.66456169 2.6051877
0.21031459 0.66485065 2.6058469
0.23407665 0.66280258 2.5967672
0.24675429 0.66407645 2.6011753
0.25893703 0.66396224 2.6001067
0.27135786 0.6644426 2.6013267
0.29677668 0.6665839 2.6082613
0.32048035 0.66484433 2.5998409
0.34451783 0.66399938 2.5947483
0.35702196 0.66452551 2.5958397
0.40796465 0.66783887 2.6044161
0.44411701 0.66676903 2.5964248
0.45608148 0.66632664 2.5933187
0.46842232 0.66644394 2.5923333
0.50975424 0.67245269 2.6109776
0.53423941 0.67213839 2.6062889
0.55855429 0.67165112 2.6006684
0.57192475 0.67285186 2.6033452
0.59662157 0.67280209 2.5989952
0.61085844 0.67486662 2.6047759
0.62376964 0.67541456 2.60462
0.6366806 0.67594194 2.6043053
0.65010953 0.67698956 2.6059124
0.68745464 0.67701411 2.5982485
0.7159459 0.68045086 2.6058371
0.72889364 0.68087006 2.6045177
0.75555938 0.68236536 2.6041291
0.76908624 0.68325049 2.6043248
0.78254259 0.6840468 2.6040926
0.85513955 0.69199061 2.6166003
0.89846098 0.69604504 2.6203265
0.93879676 0.69755977 2.613833
0.95303643 0.69862247 2.6136415
0.96765018 0.69992852 2.6143062
0.98045772 0.69991231 2.6099918
1.0226376 0.70245403 2.6065569
1.0376215 0.7038883 2.6075652
1.0535569 0.70592594 2.6108074
1.0691208 0.7076695 2.6129723
1.0825114 0.70795125 2.6097739
1.0958308 0.70818132 2.6064439
1.1100042 0.70895231 2.6051776
1.1249106 0.71016949 2.605633
1.1846529 0.71484911 2.6079311
1.200627 0.71657705 2.610925
1.2293622 0.7180481 2.6102757
1.2541598 0.71720839 2.6021655
-1.1895477 0.72423339 2.5773766
-1.1756557 0.72372895 2.5788229
-1.1437086 0.72006673 2.5728104
-1.1287509 0.71882033 2.5721254
-1.1156808 0.7187615 2.575829
-1.0999215 0.71694899 2.5733659
-1.0423344 0.71298593 2.5761006
-1.0035541 0.71288598 2.5889771
-0.98667514 0.7100082 2.5829449
-0.97255814 0.70906895 2.5839334
-0.95719409 0.70718366 2.58144
-0.94251257 0.70575911 2.5805798
-0.92868668 0.70494545 2.5819042
-0.91476893 0.70403922 2.5828357
-0.902897 0.70470452 2.5894811
-0.88866436 0.70352066 2.5892727
-0.87310553 0.70123762 2.5849376
-0.85826248 0.69947141 2.5824184
-0.84510046 0.69904333 2.5847573
-0.8316288 0.6983428 2.5860105
-0.79403615 0.69859326 2.5980101
-0.77715969 0.69479817 2.5874076
-0.76449621 0.6947071 2.590497
-0.75099921 0.69384342 2.5906181
-0.73785001 0.6932776 2.5917614
-0.72445762 0.69246018 2.5918741
-0.71152276 0.69205958 2.5934582
-0.69735706 0.69042629 2.5903306
-0.68437225 0.68992448 2.591356
-0.67116773 0.68917853 2.5913782
-0.65677994 0.68716687 2.5865493
-0.59292555 0.6851958 2.5915811
-0.58080113 0.68551511 2.5950513
-0.55388641 0.68291062 2.5894816
-0.54053813 0.68165737 2.5867641
-0.52854645 0.68209654 2.5903974
-0.43926597 0.67762977 2.5853028
-0.41544831 0.6787793 2.5925448
-0.4036566 0.67960399 2.5970407
-0.35369113 0.67811126 2.596184
-0.3418653 0.67899317 2.6006486
-0.31504464 0.67418081 2.5842373
-0.30295417 0.6744222 2.5861044
-0.26779452 0.67809403 2.6027648
-0.18132542 0.67592365 2.5990369
-0.16875124 0.67454791 2.5942557
-0.15656632 0.67463446 2.5950634
-0.14433305 0.67450929 2.5950212
-0.13224231 0.67508793 2.5976543
0.19832842 0.67803603 2.6081371
0.22235352 0.6765312 2.6013391
0.33245525 0.67659545 2.5950868
0.34500378 0.67722362 2.5965562
0.35692975 0.67662966 2.5932934
0.41930699 0.67864287 2.5953152
0.4323155 0.67981827 2.59851
0.45646042 0.67919683 2.593369
0.49701431 0.68435931 2.6084559
0.57312596 0.68671322 2.6064065
0.58561563 0.68682158 2.6047397
0.60971868 0.68604225 2.597415
0.62536895 0.68964601 2.608752
0.63730246 0.68909132 2.6042724
0.65048569 0.68988454 2.6048093
0.6634509 0.69042212 2.6042981
0.67754203 0.69209087 2.6079674
0.69136715 0.69343376 2.610317
0.70419753 0.69374996 2.6087158
0.71749789 0.69451118 2.6087019
0.73020935 0.69468707 2.606405
0.76894468 0.69573069 2.6009455
0.78319955 0.69725412 2.6033475
0.79795063 0.69916558 2.6071012
0.87106341 0.70737773 2.6194546
0.88404626 0.70756918 2.6162937
0.95448923 0.71259427 2.6145227
0.96882308 0.71370357 2.6143837
0.98408163 0.71545738 2.6165621
1.0236459 0.7161153 2.6061516
1.0391195 0.7179051 2.6083956
1.0543737 0.71950239 2.6099482
1.0696191 0.72105598 2.6113639
1.0830206 0.7213456 2.608247
1.0968891 0.72193676 2.6062849
1.1110457 0.72270256 2.6050329
1.1259657 0.72394246 2.6055825
1.1872697 0.72963554 2.6116605
1.2301987 0.73178071 2.61046
1.2439561 0.73214185 2.6092515
1.2593548 0.73345184 2.6116772
1.3416916 0.73526943 2.6107888
-1.2708621 0.73900223 2.5681496
-1.1928864 0.73938888 2.5827277
-1.1757779 0.73688293 2.5770597
-1.1615057 0.73611879 2.5776801
-1.1150122 0.7313118 2.5717368
-1.0867233 0.72973704 2.574156
-1.0425528 0.72602379 2.5736492
-1.0035598 0.72577477 2.5858283
-0.98910803 0.72462332 2.586113
-0.97158903 0.72116554 2.5781376
-0.95754075 0.72022647 2.5791292
-0.94379085 0.71949011 2.5808156
-0.92902952 0.71795249 2.5795839
-0.91621733 0.71789974 2.5836403
-0.89051694 0.71773034 2.591378
-0.8750869 0.71553332 2.5875242
-0.86028433 0.71379262 2.5852365
-0.84650981 0.71286619 2.5858164
-0.83299649 0.71213549 2.5870271
-0.77803338 0.70815295 2.5871718
-0.76442856 0.70720249 2.5871511
-0.75136524 0.70673019 2.5887909
-0.73812521 0.70607311 2.5896671
-0.72517002 0.70567083 2.5913908
-0.71257663 0.7056132 2.5942955
-0.69846869 0.7040273 2.5914912
-0.68557525 0.70363051 2.5929742
-0.65838152 0.70129442 2.5899887
-0.64465737 0.69992113 2.5876031
-0.60683948 0.69933188 2.5930064
-0.55475777 0.69634771 2.5909526
-0.54143512 0.69512939 2.5884883
-0.52901798 0.69504416 2.5901701
-0.51614422 0.69434077 2.5894773
-0.48013109 0.69579488 2.6003034
-0.46714884 0.69487679 2.5985434
-0.41579732 0.69162452 2.5924377
-0.40370315 0.69196284 2.5950778
-0.39116362 0.69153512 2.5947907
-0.37866613 0.69115674 2.5946338
-0.32863182 0.68926907 2.5920784
-0.23004268 0.68751174 2.5923195
-0.19405775 0.68989807 2.6032209
-0.16902159 0.68780512 2.5964031
-0.15676263 0.68765002 2.5963039
-0.14474118 0.68859792 2.6003346
0.18568388 0.68893981 2.6015921
0.21026005 0.6892817 2.6019199
0.22232288 0.68872869 2.5992949
0.28362301 0.68909186 2.5973876
0.29612905 0.6897229 2.5989857
0.30894083 0.69098896 2.6029305
0.34482679 0.68915933 2.5932961
0.35766712 0.69033051 2.5966933
0.4200398 0.69216049 2.5977521
0.43328205 0.69369638 2.6021883
0.49722022 0.6970579 2.6072454
0.50993311 0.69753319 2.6073267
0.57357281 0.69970793 2.6059494
0.59743136 0.69859082 2.5975039
0.63873976 0.70316416 2.6074836
0.65077084 0.70269686 2.6032586
0.66432106 0.70385778 2.6049855
0.67740458 0.70449173 2.6046765
0.69171894 0.7063607 2.6088455
0.71714938 0.70675409 2.6045735
0.74643803 0.71079946 2.6134014
0.78444672 0.71101904 2.6044843
0.79807109 0.71194166 2.6044598
0.81126922 0.71246237 2.6028821
0.82553494 0.71389174 2.6045387
0.88419449 0.72050887 2.6135788
0.89814401 0.72147393 2.6131382
0.93852931 0.72309107 2.6068337
0.96821183 0.72617286 2.609606
1.0233855 0.7288996 2.602495
1.0427741 0.73347735 2.6146116
1.0690035 0.73369133 2.6070352
1.084235 0.73523146 2.6084185
1.0995556 0.7367962 2.6099501
1.1124988 0.7367506 2.605866
1.1282479 0.73854411 2.6083887
1.142078 0.73905557 2.6065016
1.1569473 0.74022138 2.6070611
1.1742719 0.74291545 2.6131499
1.2464595 0.74689227 2.6131427
1.2725973 0.74676579 2.6088402
1.3441235 0.74992722 2.6154134
1.3533792 0.74773359 2.6078241
-1.2701222 0.75167787 2.5659223
-1.2574508 0.75192857 2.5680854
-1.1779073 0.75131953 2.5797539
-1.1623218 0.74971026 2.5773687
-1.1500545 0.7502296 2.5824974
-1.1300398 0.74564952 2.5702369
-1.1052256 0.74644363 2.5804667
-1.0579562 0.74067742 2.5725999
-1.0440177 0.73995006 2.5742676
-1.0276052 0.73742974 2.5697398
-0.9891122 0.73749048 2.5828965
-0.95933104 0.73438329 2.5806637
-0.91596687 0.73044544 2.5796008
-0.87625068 0.72920561 2.5876217
-0.8616997 0.72766072 2.5861554
-0.8483265 0.72707987 2.5880408
-0.83493853 0.72646892 2.5897467
-0.79268593 0.72261816 2.5871696
-0.7790758 0.72169179 2.5874135
-0.76525038 0.7205326 2.5867348
-0.7514146 0.71932524 2.5857918
-0.73838258 0.71885985 2.5874279
-0.72541034 0.71843797 2.5891352
-0.65943557 0.7148881 2.5911791
-0.54104608 0.70696121 2.5839763
-0.52937847 0.70786458 2.5893092
-0.51600945 0.70648187 2.5862095
-0.50396222 0.70688576 2.5895803
-0.45528227 0.70795983 2.6004512
-0.44252521 0.70732814 2.5997086
-0.41608122 0.70437902 2.5918362
-0.40352482 0.70393097 2.5915849
-0.39131773 0.7040835 2.5934889
-0.37897447 0.70399308 2.5944443
-0.36733785 0.70525354 2.6003282
-0.32901439 0.70231241 2.5928793
-0.3166022 0.70198363 2.5927
-0.29130638 0.70011044 2.5877054
-0.27895647 0.69979835 2.5874465
-0.13226701 0.69951755 2.593987
-0.11990259 0.6986419 2.5911303
0.19768044 0.70039386 2.5962691
0.2100582 0.70091414 2.5976849
0.22250415 0.70159382 2.5996516
0.27149493 0.70166165 2.5972958
0.28399357 0.70229864 2.5988972
0.29655963 0.70304376 2.6008544
0.30901706 0.7034837 2.6016362
0.32169867 0.70438206 2.6040666
0.34555915 0.70293415 2.5967925
0.35820615 0.70369446 2.5985675
0.40828639 0.70541054 2.6002486
0.4209843 0.70607793 2.6014099
0.43368599 0.70671457 2.6024001
0.44608995 0.70684528 2.6014681
0.45889848 0.70759386 2.6027501
0.48387009 0.70803523 2.6012454
0.49734792 0.70965654 2.6055415
0.51034933 0.71053714 2.6070478
0.52257526 0.71032286 2.6044698
0.53581846 0.71147031 2.6068172
0.67731279 0.71693689 2.6014817
0.69164854 0.71886283 2.605701
0.70413953 0.7188381 2.6027625
0.71731889 0.71950585 2.6022496
0.73156196 0.72120041 2.6053619
0.75937539 0.72378308 2.608398
0.77225101 0.72404623 2.6060805
0.7859323 0.72504532 2.6063285
0.81518263 0.72864121 2.6122966
0.84143227 0.72942364 2.6078439
0.88445485 0.73354709 2.6111352
0.89972246 0.73560357 2.6145089
0.93915534 0.73644871 2.6053755
0.95386606 0.73792946 2.6064875
0.96884459 0.73957664 2.6081457
1.0442675 0.74759483 2.6153855
1.0569566 0.74739003 2.6105418
1.0708617 0.7480405 2.6087406
1.0865523 0.74990904 2.6112456
1.1006975 0.75068033 2.6100049
1.1132857 0.75038505 2.6051579
1.1281027 0.75158244 2.6056097
1.1441031 0.75353307 2.6087954
1.1598392 0.75526834 2.6113744
1.1758201 0.75712329 2.6145251
1.2110792 0.75454998 2.5970898
1.2445283 0.75899225 2.6078181
1.2576532 0.75897241 2.6058633
1.2720522 0.75971413 2.606801
-1.2591069 0.76604623 2.5706441
-1.244869 0.76535529 2.5697429
-1.1771802 0.76394916 2.5762591
-1.1633959 0.76348901 2.5776892
-1.149307 0.76281679 2.5786073
-1.1316245 0.75971705 2.5714946
-1.118932 0.7599349 2.5757716
-1.0918307 0.75919437 2.5807827
-1.0435568 0.7525233 2.5701404
-1.0293728 0.75158226 2.571094
-0.93492144 0.74815941 2.5892208
-0.92010808 0.74654692 2.5878682
-0.9051792 0.74479455 2.5859773
-0.89031279 0.74304479 2.5840333
-0.87645274 0.74209654 2.5848143
-0.86212748 0.74072158 2.5840421
-0.84898174 0.74033427 2.5866477
-0.8348853 0.73909426 2.5862024
-0.82035661 0.73742795 2.5841832
-0.80596125 0.73583144 2.5823224
-0.79334885 0.73583853 2.5860083
-0.78023463 0.73537332 2.5879574
-0.76664019 0.73443311 2.5881519
-0.75203073 0.73247343 2.5846624
-0.73915529 0.7321651 2.5869102
-0.6318956 0.72439891 2.5830193
-0.58349359 0.72603536 2.5987763
-0.54151481 0.71991462 2.5834737
-0.50473177 0.72031212 2.590879
-0.49174371 0.7193948 2.5894365
-0.47875363 0.71842748 2.587744
-0.442545 0.7196939 2.597307
-0.41600293 0.71652526 2.5888913
-0.40398514 0.71702045 2.5921054
-0.39182287 0.71728283 2.5944235
-0.37953907 0.71733254 2.5959187
-0.36714315 0.71716666 2.5965803
-0.35468137 0.71685618 2.5966656
-0.32918307 0.71491814 2.5919054
-0.31714997 0.7154519 2.594898
-0.3044982 0.7145769 2.5927327
-0.26733565 0.71358663 2.591888
-0.13233848 0.71204793 2.5931818
0.18538721 0.71241534 2.5939867
0.19769831 0.71274942 2.5947146
0.21012007 0.7134214 2.5966344
0.24748038 0.71532065 2.6017232
0.27227199 0.71600419 2.6027863
0.28414783 0.71499521 2.5983438
0.29686475 0.71609998 2.6015377
0.30937564 0.71664083 2.6026363
0.32151714 0.71631867 2.6005542
0.33354178 0.71577042 2.5976055
0.34622902 0.71663374 2.5997305
0.3956455 0.71714664 2.5970514
0.40827706 0.71774596 2.597954
0.44716218 0.72094858 2.6053886
0.47121161 0.71994627 2.5987065
0.49806261 0.72311562 2.6068256
0.51101732 0.72391951 2.6079662
0.52324742 0.72368431 2.6052957
0.53576255 0.72384608 2.6039886
0.56296813 0.72696066 2.6111915
0.57520133 0.72668809 2.6081078
0.63796085 0.72731751 2.5987408
0.69261736 0.73246264 2.6063864
0.70553643 0.73286372 2.6049321
0.73262572 0.73488259 2.6060934
0.74624324 0.73591459 2.6066244
0.76034504 0.73738301 2.608613
0.77324808 0.73766118 2.6063054
0.78723967 0.73895341 2.6074986
0.81661379 0.74268591 2.6136665
0.89956188 0.74833274 2.610769
0.94094378 0.75075197 2.6070931
0.95598787 0.75250161 2.6090584
0.9693293 0.75288332 2.6062517
0.9826178 0.75321585 2.6032627
0.99593472 0.75356257 2.6003208
1.0105219 0.75485039 2.6006303
1.0436753 0.76023173 2.6109314
1.0578626 0.76110595 2.6098807
1.0725573 0.76232058 2.6100516
1.0880165 0.76404423 2.6120319
1.1280174 0.76465935 2.6030097
1.1601371 0.76866323 2.609894
1.1774325 0.77140892 2.616097
1.2350572 0.77456409 2.6164205
1.2477602 0.77425575 2.6133986
1.3420478 0.7753796 2.6114714
-1.2592041 0.77923363 2.5701244
-1.2441823 0.77804142 2.5674145
-1.1169013 0.77155745 2.5686684
-1.0777456 0.77143598 2.5793488
-1.030028 0.76495254 2.5696671
-0.96690279 0.76600063 2.5943131
-0.95173746 0.7641893 2.5924392
-0.93701106 0.76268613 2.5915802
-0.9226464 0.76144016 2.5915604
-0.90802401 0.75994396 2.5906448
-0.89221036 0.75739431 2.5860798
-0.87805182 0.75619626 2.5860662
-0.86419284 0.75522542 2.5867686
-0.8487832 0.75285065 2.5825899
-0.83562094 0.75242782 2.5850337
-0.79442549 0.7494697 2.5861151
-0.78041482 0.74815339 2.5851748
-0.76683003 0.74720949 2.5854352
-0.75343812 0.74642533 2.5861652
-0.73848259 0.74403977 2.581254
-0.66132379 0.74194628 2.5924134
-0.58426589 0.73945868 2.5992694
-0.55662066 0.73589391 2.5912971
-0.5190047 0.73536748 2.5957437
-0.50626254 0.73488015 2.5959837
-0.49292314 0.7334795 2.592927
-0.4798696 0.73244351 2.5910878
-0.46645391 0.73078567 2.5869772
-0.4431715 0.73306322 2.5983729
-0.41598833 0.72877699 2.5862544
-0.39215937 0.73019844 2.5941479
-0.37940943 0.72937256 2.5925534
-0.36731425 0.72979218 2.5953319
-0.35498118 0.72975188 2.596422
-0.34164259 0.72756755 2.5898287
-0.3294811 0.72782058 2.5918579
-0.31755009 0.72862208 2.5957925
-0.30523145 0.72856289 2.5966139
-0.28018034 0.72735459 2.594228
-0.26796228 0.72750211 2.5956464
-0.22966392 0.72286332 2.5814939
-0.20643239 0.72695285 2.5974963
0.19852911 0.72809166 2.6037416
0.22213225 0.72499567 2.5915499
0.23455186 0.72560394 2.5931032
0.26054025 0.72987127 2.6069779
0.2845183 0.72826123 2.5996823
0.29697189 0.72869784 2.6004009
0.30968153 0.72970456 2.6031063
0.32167622 0.72901523 2.599714
0.33383071 0.72872651 2.5977039
0.34591651 0.728315 2.5952072
0.38356087 0.72988468 2.5974021
0.39595965 0.73006964 2.5968223
0.40834939 0.7302286 2.5960953
0.42029402 0.72960663 2.5925357
0.44676185 0.73269814 2.600642
0.45938396 0.7331444 2.600697
0.51112348 0.73652643 2.6059279
0.52376598 0.73686314 2.6052659
0.5362457 0.7369616 2.6036932
0.57594603 0.74014395 2.6087348
0.62606901 0.74048597 2.6006606
0.63931048 0.74139005 2.6013267
0.66640729 0.74378502 2.6044679
0.67799407 0.74276882 2.5981667
0.70886165 0.7489779 2.6141217
0.72149134 0.74901044 2.6112361
0.73413813 0.74906051 2.6083333
0.7476725 0.75000042 2.6084487
0.7606076 0.75031918 2.6063223
0.77507389 0.75211453 2.6092403
0.80023938 0.75199854 2.6019814
0.81656682 0.7554093 2.6102331
0.85534602 0.75602233 2.6012976
0.86969697 0.75745797 2.6024251
0.93033433 0.76547581 2.6140842
0.95698601 0.76623243 2.6085205
0.97038865 0.76665837 2.6058719
0.98403722 0.76726574 2.6038351
0.99846411 0.76845795 2.6037812
1.0136825 0.77022213 2.6056707
1.0276406 0.7709977 2.6042352
1.0444944 0.77390051 2.6100118
1.0589901 0.77500761 2.6097715
1.0743229 0.77669376 2.6115429
1.088444 0.77747536 2.6103494
1.1028633 0.77844983 2.6099019
1.127813 0.77765268 2.6001811
1.1802657 0.78654528 2.6204414
1.1925822 0.78597438 2.6157749
1.2074513 0.78708047 2.6169102
1.2214495 0.78760165 2.6163325
1.2467297 0.78689843 2.6101441
1.3313556 0.7901805 2.6163347
-1.2642287 0.79552305 2.5797687
-1.2338518 0.79292685 2.5737035
-1.1189239 0.78597951 2.5709453
-1.1039802 0.78461123 2.5698826
-1.0908544 0.78451836 2.5731473
-1.0768192 0.78376174 2.5743687
-1.063381 0.78342724 2.5770941
-0.99365538 0.77964425 2.5849323
-0.93616772 0.7748422 2.5857902
-0.90933144 0.77386469 2.590868
-0.89543623 0.77294391 2.5919085
-0.88195235 0.77235723 2.594023
-0.85017735 0.76679677 2.5833144
-0.81130701 0.76610941 2.5925148
-0.79595208 0.76356614 2.5876057
-0.78116411 0.76149368 2.5842006
-0.76729655 0.76026535 2.5835731
-0.66287875 0.75622463 2.5952799
-0.63703573 0.75532967 2.5977819
-0.624017 0.75473827 2.5984161
-0.61122167 0.75439858 2.5998373
-0.59824413 0.75381559 2.6003404
-0.58504063 0.75291711 2.5996754
-0.55697483 0.74877077 2.5899816
-0.52002108 0.74922276 2.5979478
-0.507043 0.74841434 2.5971384
-0.49386537 0.74726361 2.5950685
-0.4806608 0.74601203 2.5925775
-0.46879566 0.74682826 2.5972061
-0.45601279 0.74618727 2.5967047
-0.44267482 0.74457711 2.5927629
-0.43042904 0.74476445 2.5950172
-0.41707987 0.74299747 2.5903986
-0.40457922 0.74268055 2.5907724
-0.39195222 0.74210471 2.5901852
-0.37955418 0.74193907 2.5909724
-0.3556577 0.74345428 2.5988374
-0.30586657 0.74236786 2.5995603
-0.2931383 0.74132991 2.5969312
-0.28066114 0.74086398 2.596257
-0.21960662 0.74224728 2.6052308
-0.1450958 0.73909324 2.5977204
0.17398235 0.74047852 2.6029043
0.18626577 0.74049807 2.6024961
0.21038504 0.73896295 2.5960305
0.23468336 0.73831707 2.5925286
0.29731485 0.74189562 2.6012423
0.30971831 0.74215019 2.6012275
0.32185379 0.74176878 2.5989363
0.33404624 0.74154311 2.5971434
0.3469356 0.74282682 2.6005852
0.37152275 0.74276036 2.5980911
0.38386855 0.74283332 2.5971365
0.39659339 0.74361342 2.5985992
0.40863085 0.74309772 2.5954773
0.4213447 0.74380738 2.5965796
0.44722363 0.74586499 2.6008275
0.48354626 0.74472177 2.5919933
0.51120853 0.74910909 2.6036956
0.52505565 0.75117135 2.6089759
0.54879951 0.74962342 2.5996301
0.60111666 0.75297493 2.6024354
0.61473858 0.75439656 2.6049585
0.62803787 0.75537461 2.6058681
0.6412729 0.75623977 2.606308
0.66697884 0.75700879 2.6036351
0.69547951 0.76078367 2.6109629
0.73449039 0.76208824 2.6063664
0.74766958 0.76267505 2.6051943
0.76176643 0.76416439 2.607022
0.77624041 0.76597828 2.60987
0.7884841 0.76556969 2.6050665
0.80234319 0.76671892 2.6054914
0.81695938 0.76854593 2.6081381
0.83057821 0.76939428 2.6073861
0.85626024 0.76962078 2.6007082
0.86969841 0.7702598 2.5990596
0.88431776 0.77191269 2.6007721
0.92984778 0.77800316 2.6093714
0.9450075 0.77991116 2.6117325
0.97094804 0.78006095 2.6041238
0.98629165 0.7820164 2.6065907
1.0012978 0.78365839 2.6080098
1.0156794 0.78477722 2.6077027
1.0302126 0.78598469 2.6077189
1.0451872 0.78749573 2.6087842
1.0602683 0.78904998 2.6100461
1.0753316 0.79055464 2.6112123
1.0889792 0.79099607 2.6089563
1.1034623 0.79202759 2.6087556
1.1294159 0.79190964 2.6015716
1.265739 0.79555452 2.5917063
1.2826347 0.79791099 2.5986392
1.312077 0.79983103 2.6043119
-1.2645434 0.80890405 2.5799172
-1.2147545 0.81084234 2.5911994
-1.0913683 0.7978946 2.5717669
-1.0779473 0.79758483 2.5743446
-1.0635674 0.79654986 2.574707
-1.0464913 0.79344529 2.5684745
-1.0098635 0.79515451 2.5859663
-0.99349266 0.79243565 2.5812211
-0.95160508 0.78983748 2.5851974
-0.93715936 0.78851855 2.5850415
-0.85029739 0.77961594 2.5801055
-0.82568514 0.78039008 2.590421
-0.81198311 0.77945608 2.5911052
-0.79802114 0.77823925 2.5907748
-0.6380477 0.76906735 2.5986476
-0.62542522 0.76897758 2.601048
-0.61177099 0.76758987 2.5989757
-0.49348986 0.75906682 2.5901909
-0.46931076 0.76003498 2.5972056
-0.45607567 0.7586534 2.5942404
-0.44314125 0.75770891 2.5927024
-0.43022931 0.75674987 2.5910485
-0.41782835 0.75665969 2.5923076
-0.40482965 0.7554487 2.5896657
-0.39218622 0.75484562 2.5890462
-0.37994605 0.7550047 2.5909836
-0.36802587 0.75583184 2.5951602
-0.29290617 0.75300181 2.5923469
-0.28061232 0.75299215 2.5932918
-0.26825538 0.75280464 2.593576
-0.24274515 0.7499119 2.5853283
-0.15742686 0.75161839 2.5958896
-0.14488842 0.75021183 2.5915372
0.21036346 0.7512117 2.5937009
0.2357185 0.75393701 2.6018419
0.27342761 0.75621825 2.6074798
0.28594944 0.75672334 2.6083851
0.32223493 0.75501519 2.5997126
0.33491606 0.75585449 2.6015756
0.42214331 0.75761926 2.5989721
0.43538654 0.75918239 2.6028676
0.45957655 0.7582708 2.5966349
0.47188234 0.75819135 2.594717
0.48417345 0.75809401 2.5926759
0.62863749 0.76866901 2.6052985
0.64185452 0.76951224 2.605581
0.65557915 0.77092117 2.6076963
0.68035644 0.77056074 2.6009421
0.72081816 0.77361292 2.6023421
0.73612756 0.77648485 2.6088743
0.74903721 0.7767725 2.6066368
0.76270705 0.77782708 2.6068943
0.77735513 0.7798298 2.6102455
0.79077721 0.7805593 2.6092534
0.80421466 0.78128195 2.6081643
0.81819856 0.78250575 2.6086755
0.85747886 0.78352582 2.600982
0.93068963 0.79164839 2.6083539
0.9453764 0.79318094 2.6093988
0.95946217 0.79417622 2.6086564
0.98854029 0.79682291 2.6093078
1.0037857 0.79865879 2.6113198
1.0189404 0.80037767 2.6129692
1.0302595 0.79907942 2.6048155
1.0750761 0.80349636 2.6078439
1.0892013 0.80429947 2.6068525
1.1039666 0.80555147 2.6074312
1.2699074 0.81142294 2.5997379
1.2831328 0.81146902 2.5993364
1.301066 0.81446117 2.6086726
-1.2870257 0.81962818 2.5714967
-1.2175484 0.82595295 2.5959806
-1.1107424 0.81557995 2.5807574
-1.0975921 0.81552517 2.5838859
-1.0111448 0.80914223 2.5860322
-0.9947691 0.80638868 2.5812516
-0.97903496 0.80408978 2.5779502
-0.95322508 0.80408043 2.5861259
-0.93734008 0.80152798 2.5820296
-0.92274451 0.80002302 2.5812874
-0.8518886 0.79380858 2.5813015
-0.8380906 0.79280722 2.5819397
-0.82616478 0.79357356 2.5882843
-0.81216091 0.79233712 2.588038
-0.78510666 0.7907058 2.5900831
-0.77061105 0.78885907 2.5876148
-0.75576353 0.78658491 2.5836565
-0.72940904 0.78539908 2.5865405
-0.71672285 0.78531343 2.5895371
-0.70296317 0.78402805 2.5884964
-0.68935591 0.7828691 2.5877891
-0.67633027 0.78234023 2.589081
-0.6629445 0.78136736 2.5888219
-0.58488429 0.7776621 2.5926304
-0.57243478 0.77771288 2.5952199
-0.50731951 0.77363557 2.5925801
-0.49441871 0.77288902 2.5920632
-0.48190638 0.77272731 2.5934384
-0.46896276 0.77184731 2.592335
-0.45629776 0.7713908 2.592587
-0.39204192 0.76685965 2.5853152
-0.32996359 0.76569581 2.5879157
-0.29304725 0.76562715 2.5909727
-0.28089637 0.76602167 2.5933063
-0.26868984 0.76629359 2.5951777
-0.1576245 0.7647773 2.5965867
-0.14525785 0.76432663 2.5955741
0.2233863 0.76618123 2.5998898
0.273992 0.77020162 2.6105664
0.3222664 0.76746058 2.5975769
0.33511648 0.76869702 2.6007135
0.35888189 0.76678526 2.5919988
0.37152719 0.76750177 2.5932169
0.4471907 0.77063239 2.5953672
0.46001333 0.77141559 2.5963912
0.47274455 0.77200949 2.5967147
0.48547325 0.77257025 2.5968604
0.49746832 0.77196586 2.5930257
0.53932357 0.77880394 2.6101387
0.6425823 0.78298712 2.6053569
0.66747081 0.78276145 2.5991728
0.68147612 0.78445345 2.6019571
0.69478613 0.78529972 2.6018522
0.70884717 0.78695083 2.6043293
0.72228134 0.78786159 2.6042736
0.77693897 0.79215837 2.6054091
0.7923488 0.7949003 2.6109765
0.82173651 0.79874027 2.6164618
0.87592751 0.80156499 2.6107423
0.93227541 0.80596107 2.6093857
0.94644004 0.80705452 2.6089575
0.96057779 0.80809718 2.6083546
0.97696435 0.81097984 2.6136816
0.99128044 0.81209219 2.6133037
1.059683 0.81481731 2.6029439
1.0753692 0.81684935 2.6058476
1.089504 0.81766951 2.6049891
1.1036286 0.8184635 2.6041744
1.1875129 0.8222782 2.5998254
1.2843733 0.82551509 2.6016576
-1.3427308 0.8347497 2.5816183
-1.2697361 0.83005261 2.5630724
-1.229823 0.8385421 2.5915809
-1.1423974 0.83267176 2.5851572
-1.1254535 0.82986605 2.579217
-1.082327 0.82693338 2.5795052
-1.0678226 0.82580942 2.5794504
-1.0363309 0.82151103 2.573271
-1.0111392 0.82211637 2.5828249
-0.9958244 0.82019228 2.5807145
-0.98017687 0.81794041 2.5776095
-0.95422155 0.81783217 2.5853465
-0.94027686 0.81693649 2.5865839
-0.92416704 0.81410897 2.5816948
-0.90731603 0.8105402 2.5744207
-0.89501536 0.8109929 2.5798931
-0.82680517 0.80692798 2.5865901
-0.81340259 0.80627745 2.588294
-0.75618941 0.79965264 2.5814674
-0.74299717 0.79905158 2.5829704
-0.73079032 0.79950821 2.5878224
-0.71740288 0.79866713 2.5883999
-0.70464844 0.79851359 2.5911286
-0.69056565 0.79682201 2.5887852
-0.67683637 0.79548353 2.5875015
-0.66370779 0.79481405 2.5883117
-0.65053016 0.79405922 2.5887632
-0.59766585 0.79052418 2.5880749
-0.5736258 0.79182935 2.5973291
-0.50744307 0.78623194 2.5900834
-0.4946236 0.78560686 2.5900388
-0.48246312 0.78602362 2.5933611
-0.46943158 0.78500599 2.5918841
-0.43258741 0.78569096 2.5994089
-0.39250526 0.78007078 2.5854936
-0.3676568 0.77966881 2.5869894
-0.35515642 0.77927965 2.5870283
-0.34210417 0.77760857 2.5827529
-0.281225 0.77919763 2.5936315
-0.26927948 0.7802701 2.5981734
-0.23063892 0.77474988 2.5824089
0.33548635 0.78195149 2.6010709
0.34752822 0.78127104 2.5976846
0.35973269 0.78099149 2.5955803
0.39986697 0.78719544 2.6123173
0.43443549 0.78232902 2.5917981
0.44758636 0.78373933 2.594892
0.47402713 0.78657222 2.6009185
0.66832376 0.79637724 2.5991766
0.68194127 0.79762387 2.6003852
0.6967628 0.80020934 2.6058717
0.71059746 0.80159092 2.6073503
0.72350419 0.80189687 2.6052513
0.76528853 0.80598831 2.6087894
0.77920067 0.80724901 2.6094778
0.79300225 0.80835772 2.6096003
0.87612164 0.81464159 2.6077895
0.90605044 0.81851524 2.6124575
0.92020315 0.81964952 2.6121724
0.93472719 0.82107997 2.612807
0.94751555 0.82096869 2.6085274
0.96136636 0.82176977 2.6071498
0.9770174 0.82406926 2.6105289
1.0018507 0.82317817 2.5999804
1.0181631 0.82591158 2.6048126
1.0784885 0.8323921 2.6107423
1.1053131 0.8328926 2.6057515
1.156768 0.83225691 2.5926576
1.1757191 0.83643949 2.603404
1.1884375 0.8361451 2.6004353
-1.1256086 0.84308124 2.577502
-1.1102927 0.84139997 2.5751545
-1.0841513 0.84140229 2.581301
-1.0702708 0.84076846 2.5826693
-1.0546306 0.83871979 2.5798235
-1.0380433 0.83585787 2.5745819
-1.01191 0.83573067 2.581629
-0.99784309 0.83482879 2.5826864
-0.96768242 0.83121324 2.5793393
-0.92726707 0.82973486 2.5867567
-0.86599803 0.82057333 2.5740638
-0.81309295 0.81869411 2.583554
-0.78314763 0.81403559 2.5762131
-0.7707144 0.81427503 2.5805647
-0.75765562 0.813851 2.5827503
-0.74479181 0.81362593 2.585499
-0.73179853 0.81324983 2.587697
-0.71946943 0.81361175 2.5921736
-0.70606059 0.8127442 2.5926607
-0.69247413 0.81163716 2.5923028
-0.67879957 0.81038415 2.5913961
-0.66491538 0.80882907 2.5894396
-0.65121531 0.80744267 2.5879376
-0.63806474 0.80669677 2.5884061
-0.62506115 0.80611092 2.589309
-0.50763804 0.79894555 2.5878544
-0.49544987 0.79933643 2.5911667
-0.45895535 0.80075985 2.6015315
-0.41921327 0.7962687 2.5920868
-0.40648228 0.79560012 2.5915022
-0.37962878 0.79123312 2.5802672
-0.35554373 0.79243082 2.5869393
-0.29414266 0.79310042 2.595103
-0.28142405 0.79203534 2.5926585
-0.26966652 0.79370171 2.5991061
-0.24353907 0.78907305 2.5857799
-0.15753642 0.7887556 2.5897212
0.19789377 0.78735059 2.5847921
0.21030033 0.78796846 2.5862088
0.22259969 0.78814054 2.5861177
0.24780191 0.79036224 2.591959
0.28451368 0.78995472 2.5881021
0.3238337 0.79606348 2.605135
0.33553633 0.79447836 2.5988541
0.34814224 0.79506952 2.5996416
0.36049807 0.79506999 2.5984426
0.4626801 0.8008852 2.605716
0.47518671 0.8009972 2.6043415
0.48786455 0.80138612 2.6038015
0.51403511 0.80338418 2.6064804
0.5267278 0.80371493 2.6055455
0.55150539 0.80344975 2.6004677
0.59063798 0.805785 2.6011562
0.64468265 0.8108384 2.6072435
0.65864694 0.81254274 2.6099801
0.68328738 0.81185973 2.6020846
0.69728607 0.81349671 2.6043658
0.71164608 0.81549108 2.607707
0.78088665 0.82180941 2.6115363
0.79579401 0.82405174 2.6151845
0.87709916 0.82846528 2.6071274
0.94854277 0.83487105 2.6079488
0.96284246 0.83606213 2.6078014
0.97728759 0.83734733 2.6079617
1.0066221 0.84019214 2.6092231
1.1062204 0.84676778 2.6055665
1.1205628 0.84770936 2.6055617
1.1342931 0.84817201 2.6042612
1.1721803 0.8566888 2.6255167
1.2861983 0.8532505 2.6053483
1.2979784 0.85232544 2.602864
1.3424723 0.84714955 2.5913789
-1.346864 0.86374378 2.5917978
-1.1550673 0.85860926 2.5782306
-1.1418184 0.85852218 2.5801585
-1.1261133 0.85656542 2.5766881
-1.110966 0.85499239 2.5745733
-1.085482 0.85552591 2.5819948
-1.0724291 0.8555553 2.5852492
-1.0568327 0.85353148 2.5824442
-1.0256629 0.84935135 2.5767746
-1.0121213 0.84889519 2.5790424
-0.95410401 0.84354883 2.5780692
-0.92836207 0.84362429 2.5862026
-0.91484624 0.84307027 2.5884786
-0.83219254 0.83782852 2.5958419
-0.81449002 0.83284545 2.5841792
-0.79910243 0.83010888 2.5794046
-0.70622635 0.82556748 2.5895298
-0.69330364 0.82523656 2.5916865
-0.67921209 0.82347667 2.5892763
-0.66601777 0.82275891 2.5900612
-0.65221632 0.82124943 2.5882726
-0.63893634 0.82035041 2.5883255
-0.6018663 0.82120889 2.5992622
-0.49558219 0.81196916 2.588563
-0.48313624 0.81195849 2.5905366
-0.4197095 0.80959016 2.5920193
-0.38024876 0.80482864 2.5814314
-0.33003935 0.80267376 2.5799131
-0.23152311 0.80220693 2.5866888
-0.16981927 0.80101055 2.5864587
-0.15776087 0.80209345 2.5905495
0.18549538 0.79901052 2.5808227
0.24830207 0.80434483 2.5946825
0.31213671 0.81025845 2.6091778
0.32361189 0.80794883 2.6006761
0.3366856 0.80965483 2.6050482
0.34873846 0.80887294 2.6013618
0.36154452 0.80983317 2.6032233
0.37394091 0.80984384 2.6019757
0.42458573 0.81191754 2.6029258
0.43730602 0.81247503 2.6031358
0.45064989 0.81412965 2.6067948
0.46303079 0.81400341 2.6046867
0.47568339 0.81435025 2.6040285
0.48872226 0.81532496 2.6053114
0.5020718 0.81675792 2.6079872
0.51517731 0.81773502 2.6091356
0.6038723 0.81934136 2.5985086
0.64648485 0.8257888 2.6110826
0.65882874 0.82544512 2.6072288
0.67270839 0.82700342 2.6093066
0.68468988 0.82621515 2.6039062
0.69797784 0.82700443 2.6034074
0.7121079 0.82874715 2.6058304
0.74870634 0.82723033 2.5914862
0.82277906 0.83836377 2.6089575
0.8360371 0.83882779 2.6067638
0.86563098 0.84271473 2.6114135
0.94923407 0.84850293 2.6064415
0.96415341 0.85025001 2.6080034
0.97845232 0.85141218 2.6077919
1.0078816 0.8543545 2.609374
1.1234058 0.86310011 2.6100852
1.1356312 0.86240119 2.605417
1.2856058 0.86613351 2.6043429
1.3042923 0.86980283 2.6159165
-1.1975634 0.8740083 2.578949
-1.1425877 0.87224495 2.5802228
-1.1279531 0.8710919 2.5790358
-1.1135982 0.87013096 2.5786302
-1.0992498 0.86915278 2.5783725
-1.0869657 0.86980337 2.5831358
-1.0739195 0.86985326 2.586293
-1.0586914 0.86811572 2.5842903
-1.0444123 0.86712307 2.5846398
-1.0278946 0.86422384 2.5794208
-1.0138282 0.86333799 2.5803103
-0.98923165 0.8645891 2.5914109
-0.97357523 0.86226618 2.5882325
-0.9559741 0.85813528 2.5796568
-0.94298851 0.85809171 2.5833933
-0.92952323 0.85760456 2.5858257
-0.91562378 0.85669827 2.5870087
-0.90237719 0.85638601 2.5899904
-0.88859868 0.85555303 2.5913932
-0.81600296 0.84716004 2.5851116
-0.77531028 0.84458858 2.5882571
-0.7616955 0.84361905 2.5888391
-0.70849395 0.84089035 2.5940166
-0.6933499 0.83791894 2.5880601
-0.66597837 0.83529764 2.5861554
