# .PCD v0.7 - Point Cloud Data file format
VERSION 0.7
FIELDS x y z
SIZE 4 4 4
TYPE F F F
COUNT 1 1 1
WIDTH 1382
HEIGHT 1
VIEWPOINT 0 0 0 1 0 0 0
POINTS 1382
DATA ascii
0.28095973 -0.1176651 0.89343005
0.28921294 -0.11931532 0.90499306
0.2948938 -0.11987121 0.90820473
0.30073595 -0.12047543 0.91173917
0.30638415 -0.12098557 0.91451812
0.31249076 -0.12165964 0.91849089
0.32474536 -0.12467507 0.94007087
0.32973373 -0.12485625 0.94021457
0.3287321 -0.12279484 0.92345411
0.33250892 -0.12093631 0.90693891
0.33757779 -0.11811467 0.88181806
0.33716902 -0.11649572 0.8683688
0.34578398 -0.11799581 0.878142
0.35273695 -0.11889882 0.88341534
0.38718545 -0.12589754 0.93066472
0.39189866 -0.12594567 0.9293927
0.36773711 -0.11681973 0.86052448
0.37195978 -0.11681557 0.85895663
0.40064669 -0.12166668 0.88978928
-0.25644848 -0.062106553 0.45733392
-0.25584847 -0.06253656 0.46068829
-0.25372541 -0.062598817 0.46140435
-0.25243708 -0.06287007 0.46373022
-0.24959888 -0.06275674 0.46328536
-0.24838634 -0.063053809 0.46593389
-0.24670856 -0.063237317 0.46780604
-0.24432945 -0.063242778 0.4684183
-0.24059866 -0.062894873 0.46646169
-0.2368481 -0.062534653 0.46445367
-0.23342332 -0.062253878 0.46307132
-0.23126024 -0.062307149 0.46420917
-0.23138192 -0.062983282 0.47003016
-0.22816439 -0.062754922 0.46913603
-0.22481528 -0.062484991 0.46794957
-0.2220533 -0.06237407 0.46796945
-0.22009449 -0.062488597 0.46969733
-0.2180441 -0.062579148 0.47126049
-0.21453919 -0.062249441 0.46966454
-0.21288715 -0.062455807 0.47211707
-0.20978263 -0.062235702 0.47134799
-0.20711289 -0.062140848 0.47152245
-0.20381367 -0.061852574 0.47022077
-0.20104931 -0.061721619 0.4701038
-0.19867961 -0.061709952 0.47088593
-0.19646129 -0.06174539 0.47201827
-0.19365516 -0.061594512 0.47171393
-0.19092147 -0.061463088 0.47154212
-0.18824667 -0.061347418 0.4714742
-0.18521523 -0.061110999 0.47045892
-0.18160525 -0.060675129 0.46788383
-0.17851375 -0.060403384 0.46654904
-0.17165887 -0.058834556 0.4551563
-0.16974699 -0.058940813 0.45668742
-0.16779478 -0.059035514 0.45811406
-0.16566722 -0.059070051 0.4590579
-0.16324592 -0.058999203 0.45916435
-0.16101395 -0.058995593 0.45977539
-0.15875873 -0.058983061 0.46029866
-0.15630831 -0.058896448 0.46022481
-0.15317287 -0.058545358 0.45806184
-0.15911114 -0.061702587 0.48335737
-0.15741459 -0.061948564 0.48586112
-0.19214761 -0.080375634 0.63314092
-0.18734953 -0.079620607 0.62781876
-0.18430452 -0.079597972 0.62824363
-0.17799945 -0.078143194 0.61733216
-0.17465332 -0.077960186 0.61643511
-0.17076372 -0.077523991 0.61351126
-0.16753662 -0.077378474 0.61286396
-0.16410232 -0.077130213 0.61138105
-0.15923803 -0.076188639 0.60437638
-0.15546493 -0.07574407 0.60128784
-0.15196916 -0.075420365 0.59913659
-0.14787684 -0.074782506 0.59446752
-0.14410427 -0.074284606 0.59088838
-0.12820211 -0.080010779 0.63939166
-0.20251705 -0.1359307 1.0875136
-0.19918594 -0.13714477 1.0976055
-0.19401772 -0.13712443 1.097802
-0.18714435 -0.13586473 1.0880549
-0.18152717 -0.1354717 1.0852265
-0.17718098 -0.13603155 1.0900151
-0.1725983 -0.13643731 1.0935546
-0.16812365 -0.13695544 1.0979812
-0.16218184 -0.13627312 1.0927681
-0.15711032 -0.1363011 1.0932355
-0.15295772 -0.13715459 1.1003121
-0.1493692 -0.13859041 1.1120508
-0.14425696 -0.13866462 1.1128534
-0.13837084 -0.13797233 1.1074917
-0.13349991 -0.13827752 1.1101247
-0.12880248 -0.13879392 1.1144434
-0.12386414 -0.13908286 1.1169261
-0.11973672 -0.14034727 1.1272343
-0.11793179 -0.15152706 1.2173303
-0.11269008 -0.15210652 1.222123
-0.10665911 -0.15162514 1.2183841
-0.10077775 -0.15131384 1.2160027
-0.094266608 -0.14996319 1.2052594
-0.08837077 -0.14948186 1.2014946
-0.082368754 -0.1487433 1.1956542
-0.076464213 -0.14808598 1.1904595
-0.070706114 -0.14763123 1.1868864
-0.065172926 -0.14760827 1.1867789
-0.059581298 -0.14743592 1.1854649
-0.054085352 -0.14748874 1.1859555
-0.048462607 -0.14716792 1.1834368
-0.042895604 -0.14695518 1.1817824
-0.037283927 -0.14650364 1.1782027
-0.031849924 -0.1467142 1.1799433
-0.026355881 -0.14667736 1.1796901
-0.020814499 -0.14628738 1.1765927
-0.0152661 -0.14555098 1.1707048
-0.0097834943 -0.14497146 1.1660744
-0.00434718 -0.1444857 1.162194
0.0010507971 -0.14374101 1.1562274
0.0064014737 -0.14318642 1.1517859
0.011743921 -0.14303792 1.1506072
0.016961761 -0.14194031 1.14179
0.022217032 -0.14160497 1.1391007
0.027408337 -0.14106981 1.1348001
0.032644711 -0.14090216 1.1334518
0.037918814 -0.14092149 1.1336038
0.043050259 -0.14047071 1.12997
0.047972277 -0.13950902 1.1222218
0.052897982 -0.1387457 1.1160649
0.057886161 -0.13826796 1.1122011
0.062926643 -0.13798328 1.1098849
0.067885421 -0.13757612 1.1065788
0.072779097 -0.13710366 1.102742
0.077837005 -0.13698234 1.1017238
0.083182052 -0.13735008 1.1046332
0.088375352 -0.13743898 1.1052932
0.093305677 -0.13713154 1.102759
0.098023951 -0.13656062 1.0980995
0.10270531 -0.1359973 1.0934938
0.100618 -0.12122725 0.97457778
0.10473415 -0.12074594 0.97061878
0.1085643 -0.11998823 0.96443069
0.11300717 -0.11994085 0.96394402
0.11746359 -0.11991081 0.96358764
0.12069288 -0.11867627 0.95354384
0.12383739 -0.11744873 0.94354916
0.12836158 -0.11756889 0.94437218
0.1324558 -0.11730018 0.94206125
0.1366419 -0.11712737 0.94050956
0.14045618 -0.11665633 0.93655246
0.14435473 -0.11628141 0.93335599
0.1484921 -0.11611504 0.93182176
0.15301272 -0.1162492 0.93268597
0.15637828 -0.11552248 0.92663038
0.16043575 -0.11533212 0.92486447
0.16498516 -0.11549596 0.92592418
0.16909109 -0.11534878 0.9244749
0.17237647 -0.11466295 0.9186945
0.17576857 -0.11407956 0.91372144
0.1800148 -0.1140649 0.91328812
0.18465254 -0.1142931 0.91478091
0.18907291 -0.11437932 0.91511792
0.1938151 -0.11465194 0.91692603
0.19772066 -0.11442842 0.9147464
0.20037076 -0.11350303 0.90693992
0.20231827 -0.11222618 0.8963123
0.20625256 -0.11208081 0.89470571
0.20993681 -0.11180788 0.89206082
0.21540082 -0.11247481 0.89688998
0.21964452 -0.112491 0.89650434
0.22390048 -0.1125126 0.89613748
0.22860835 -0.11275608 0.89751214
0.23216754 -0.11243434 0.89436275
0.23760927 -0.11301929 0.89839858
0.24076633 -0.11251591 0.89375639
0.24540798 -0.11271153 0.89464086
0.25039095 -0.11305445 0.89666373
0.25341952 -0.11251803 0.89168525
0.25654954 -0.11204331 0.88717335
0.25998646 -0.11171556 0.88380146
0.26421124 -0.1117312 0.88311827
0.26913476 -0.11203704 0.88469619
0.2747255 -0.11260679 0.88832051
0.27983293 -0.11296395 0.89022893
0.28612009 -0.11377946 0.89570755
0.29345468 -0.11498116 0.90417659
0.29915601 -0.11551716 0.9073624
0.30495623 -0.11607534 0.91067851
0.3104479 -0.11650176 0.91291755
0.3186816 -0.11793082 0.92296112
0.32829243 -0.11982317 0.9365623
0.33566239 -0.12085734 0.94339067
0.33261406 -0.11660705 0.90768969
0.33295172 -0.11520866 0.89550728
0.33364505 -0.11252349 0.87200803
0.35063994 -0.11533204 0.8909567
0.35115686 -0.11409162 0.87993836
0.37233761 -0.11533705 0.88349408
0.38402823 -0.11624878 0.88731712
0.40321201 -0.11933658 0.90760106
-0.26528186 -0.061834522 0.4731259
-0.25523248 -0.060044728 0.4596343
-0.25426787 -0.060378596 0.46246356
-0.25125971 -0.060228836 0.46165672
-0.2493756 -0.060348164 0.4629769
-0.24863926 -0.060750145 0.46653128
-0.24766445 -0.061101004 0.46975785
-0.24537028 -0.06112995 0.47056806
-0.24118653 -0.060683917 0.46776882
-0.236697 -0.060151082 0.46433634
-0.23351522 -0.059943032 0.46344417
-0.23243409 -0.060275316 0.46676835
-0.23092964 -0.060503382 0.46932557
-0.22822498 -0.060418312 0.46948394
-0.22535251 -0.060286369 0.46929911
-0.22271918 -0.060216099 0.46961111
-0.22073597 -0.060321782 0.4713116
-0.21725929 -0.060017001 0.46981397
-0.21452372 -0.059912305 0.46988454
-0.21144153 -0.059707209 0.46916798
-0.21139123 -0.060363062 0.47522491
-0.2075686 -0.05994419 0.4728232
-0.20419261 -0.059645955 0.47135875
-0.20108132 -0.05941882 0.47044227
-0.19895801 -0.059481516 0.47181004
-0.19669838 -0.059504256 0.47285229
-0.19427213 -0.059476335 0.47348037
-0.19120005 -0.059247412 0.47249177
-0.18825656 -0.059052985 0.47175834
-0.18473953 -0.058671366 0.46950644
-0.18059872 -0.05807934 0.46554202
-0.17763446 -0.057855207 0.46449915
-0.17170264 -0.05664606 0.45551276
-0.16980663 -0.056753937 0.45708603
-0.16777208 -0.056817602 0.45828772
-0.16556352 -0.05682306 0.45900303
-0.16321011 -0.056778096 0.45929271
-0.16092405 -0.056755479 0.4597443
-0.15864171 -0.056733385 0.46018153
-0.15562551 -0.056444321 0.45843193
-0.15322471 -0.056373179 0.45843053
-0.17079945 -0.064700469 0.52741051
-0.17376795 -0.066814221 0.54526109
-0.18821707 -0.074611917 0.61021382
-0.1870625 -0.075320609 0.61664063
-0.18566465 -0.075952217 0.62242544
-0.18386783 -0.076438256 0.62700415
-0.17928502 -0.075762823 0.62203258
-0.17628182 -0.075743236 0.62241948
-0.1704921 -0.074505061 0.61276329
-0.16882385 -0.075056069 0.61779737
-0.16402113 -0.074208193 0.6112957
-0.15818097 -0.072851829 0.60057271
-0.15526715 -0.072818078 0.60072631
-0.15239771 -0.072804078 0.60102504
-0.1475493 -0.071826011 0.59334248
-0.14472726 -0.071815401 0.59362996
-0.1479751 -0.074875578 0.61930007
-0.20653141 -0.13344245 1.1093267
-0.19874255 -0.1317237 1.0954083
-0.19330521 -0.13151337 1.0940098
-0.18652123 -0.13035019 1.0846628
-0.18140993 -0.13032328 1.0847507
-0.17639008 -0.13036205 1.0853686
-0.17152488 -0.13052049 1.0869669
-0.16686592 -0.13084997 1.0899755
-0.16189176 -0.13094492 1.0910168
-0.1568682 -0.13100445 1.091749
-0.1521403 -0.13132283 1.0946252
-0.14848441 -0.13262047 1.105654
-0.14385927 -0.13311432 1.1099719
-0.13857612 -0.13301313 1.1093167
-0.13312289 -0.13273413 1.1071669
-0.12844093 -0.13323228 1.1114889
-0.12331018 -0.13328688 1.112101
-0.11814826 -0.13331071 1.1124468
-0.11676683 -0.14442462 1.2054791
-0.11263281 -0.14634912 1.2216753
-0.10712802 -0.14660208 1.2239113
-0.10083666 -0.14574617 1.2168813
-0.0950322 -0.14553355 1.215214
-0.088576518 -0.14423312 1.204455
-0.082654841 -0.1436848 1.1999688
-0.076650575 -0.14290252 1.1935215
-0.070846215 -0.14239937 1.1893989
-0.065054521 -0.14183804 1.1847843
-0.059602067 -0.14198034 1.1860416
-0.054014523 -0.1417965 1.1845695
-0.048421104 -0.1415531 1.1825949
-0.042771466 -0.14106129 1.17854
-0.037285149 -0.14104202 1.1784289
-0.031815752 -0.14109035 1.1788782
-0.026325565 -0.14104655 1.1785543
-0.020779608 -0.14060132 1.1748719
-0.015280023 -0.14026289 1.1720781
-0.0097962702 -0.13977325 1.1680168
-0.0043576648 -0.13950704 1.165819
0.0010540184 -0.13843618 1.1568935
0.0064264475 -0.13831343 1.1558874
0.011730147 -0.1374979 1.1490881
0.016986126 -0.13680905 1.1433439
0.022233546 -0.13639644 1.1399047
0.027496072 -0.13621777 1.1384171
0.032575101 -0.13533467 1.1310383
0.037794836 -0.13520047 1.1299149
0.04307631 -0.13529305 1.1306825
0.048245516 -0.13505127 1.1286516
0.053398777 -0.13481671 1.126677
0.058156408 -0.13371442 1.1174462
0.062994324 -0.13296233 1.1111375
0.067882404 -0.13242204 1.1065941
0.072946861 -0.13227767 1.105354
0.078054063 -0.13222463 1.1048717
0.083299682 -0.1323981 1.1062762
0.088537194 -0.13253917 1.1074035
0.09370815 -0.13257052 1.1076075
0.098334417 -0.13186805 1.1016737
0.10258991 -0.13076244 1.0923656
0.10106234 -0.11720756 0.97898132
0.10426101 -0.11570391 0.96633708
0.10886361 -0.11581806 0.9671973
0.11342279 -0.11587868 0.96760195
0.11610171 -0.11408693 0.95253193
0.11933936 -0.1129557 0.94296998
0.12433568 -0.11351013 0.94747132
0.12806256 -0.11290724 0.94230217
0.13187948 -0.11242093 0.93809688
0.13621624 -0.1123946 0.9377194
0.14048111 -0.11231232 0.93686372
0.14446647 -0.11201812 0.93422878
0.14878969 -0.11199529 0.93384498
0.15262875 -0.11161957 0.93050611
0.15654331 -0.11131817 0.92777443
0.16072184 -0.11121549 0.92668563
0.16511427 -0.11126217 0.9268266
0.1691477 -0.11107063 0.92496783
0.17264906 -0.11054775 0.92033607
0.17593035 -0.10991266 0.91475624
0.18017422 -0.10989463 0.91429681
0.18449077 -0.10992058 0.91418576
0.18883286 -0.10996011 0.91416878
0.19222586 -0.10945728 0.90962577
0.19569789 -0.10902011 0.90561211
0.19839127 -0.10817675 0.8982088
0.20191617 -0.10781226 0.89476568
0.2054065 -0.10744435 0.89127588
0.20979217 -0.10754995 0.89169347
0.21344687 -0.10728386 0.88900763
0.21821223 -0.10757536 0.89091933
0.2227941 -0.10776695 0.89197761
0.22691253 -0.10773128 0.89112985
0.23147544 -0.10790392 0.89197934
0.23529133 -0.10772822 0.88992405
0.23970856 -0.107829 0.89012647
0.24407452 -0.10790347 0.89008391
0.24867946 -0.10807912 0.89084679
0.25255138 -0.10793546 0.88894945
0.25546658 -0.10739411 0.88375294
0.25936639 -0.10727729 0.88202494
0.26486081 -0.10781307 0.88562971
0.26840118 -0.10754894 0.88263136
0.27367291 -0.10797586 0.88527203
0.27842548 -0.10818791 0.8861146
0.2837328 -0.10860578 0.88860559
0.29108113 -0.10978095 0.89724612
0.2977266 -0.11066062 0.90341997
0.30285376 -0.11095867 0.90480089
0.30918995 -0.11168484 0.90962899
0.31411073 -0.11188645 0.91014111
0.32342693 -0.11362654 0.92311341
0.3354587 -0.11626051 0.94326609
0.34214059 -0.11699457 0.94793218
0.33897883 -0.11003981 0.88639939
0.34708929 -0.11126257 0.89485866
0.35319492 -0.1104544 0.88550943
0.382781 -0.11152843 0.88490677
0.39300275 -0.11321661 0.89668465
0.39852116 -0.11352704 0.89751542
0.40458423 -0.11398382 0.8994897
-0.24902536 -0.055781685 0.44417143
-0.25712562 -0.058131374 0.46310052
-0.25500432 -0.058192499 0.46387661
-0.25212908 -0.05808102 0.46334362
-0.24979517 -0.058093216 0.46386141
-0.2492744 -0.05853131 0.46784478
-0.24812216 -0.058828089 0.47076339
-0.24646719 -0.059010237 0.47282386
-0.24300426 -0.058758702 0.47145915
-0.23796059 -0.058115922 0.46699086
-0.23513827 -0.058007967 0.46685234
-0.23481116 -0.05851952 0.47174144
-0.23001492 -0.057916179 0.46767369
-0.22715515 -0.057792742 0.46749869
-0.22491786 -0.057826567 0.46861744
-0.22376987 -0.058143973 0.47205833
-0.22025706 -0.057846941 0.47052562
-0.21817568 -0.057923283 0.47203761
-0.21529041 -0.057785336 0.47180969
-0.21303053 -0.057813846 0.47294325
-0.21025021 -0.057699963 0.47291151
-0.2081835 -0.057781357 0.47447804
-0.2040561 -0.057285905 0.47129694
-0.20103993 -0.057094336 0.47059876
-0.1990305 -0.05718733 0.47223598
-0.19730335 -0.057364397 0.47456118
-0.19508335 -0.057400502 0.47571149
-0.19134614 -0.056985453 0.47310388
-0.1877933 -0.056615554 0.47084537
-0.18458071 -0.056340117 0.46934786
-0.18000828 -0.055637229 0.46425986
-0.17678457 -0.055338398 0.46251312
-0.17213011 -0.054577991 0.45687738
-0.16996464 -0.054597024 0.45773938
-0.16781379 -0.054621145 0.4586269
-0.16542484 -0.054567181 0.45884064
-0.16306187 -0.054520272 0.45909432
-0.16080871 -0.054509114 0.45963025
-0.15840952 -0.054447271 0.45971978
-0.15581678 -0.054316044 0.4592033
-0.15832502 -0.055984601 0.47390082
-0.16080908 -0.057693046 0.48895258
-0.19164732 -0.071904406 0.61146104
-0.1879276 -0.072727345 0.61973715
-0.18535617 -0.072878435 0.62163132
-0.18302938 -0.073131986 0.62438089
-0.17881633 -0.072627582 0.62063599
-0.17804907 -0.073529065 0.6288867
-0.16947494 -0.071182087 0.60932297
-0.16882201 -0.07213822 0.61800396
-0.16311051 -0.070928216 0.60810703
-0.15804495 -0.06996046 0.60025412
-0.15541983 -0.070057146 0.60151052
-0.15175495 -0.069679849 0.59867805
-0.14798595 -0.069239318 0.59528071
-0.14495017 -0.069131233 0.59472197
-0.14849569 -0.075185597 0.64791322
-0.21139799 -0.12805961 1.1074532
-0.20450905 -0.12700349 1.0987029
-0.19860259 -0.12651841 1.0948684
-0.19310497 -0.12627465 1.0931014
-0.18732393 -0.12582693 1.0895487
-0.18149602 -0.12532149 1.0854766
-0.1761214 -0.1251086 1.0839202
-0.17115159 -0.12517887 1.0848012
-0.16647832 -0.12547658 1.0876385
-0.16174079 -0.12574278 1.0901892
-0.15656136 -0.12567122 1.0897982
-0.15175325 -0.12590258 1.0920209
-0.14782727 -0.12690695 1.1009377
-0.1435553 -0.12767562 1.1078001
-0.13825338 -0.12755108 1.106902
-0.13317817 -0.12763384 1.1077918
-0.12787952 -0.12750007 1.1067916
-0.12279665 -0.12757894 1.107627
-0.11761202 -0.127554 1.1075519
-0.11202253 -0.12706716 1.1034565
-0.11165042 -0.13944156 1.2111787
-0.10654948 -0.14015092 1.2174591
-0.10090914 -0.14019015 1.2179115
-0.095318504 -0.14030682 1.2190288
-0.08950071 -0.14008223 1.2171745
-0.08284352 -0.13842429 1.2028577
-0.076908968 -0.13782051 1.1976942
-0.070829302 -0.13684158 1.1892633
-0.065143898 -0.13652249 1.1865611
-0.059561078 -0.13637868 1.1853774
-0.054046523 -0.13637723 1.1854259
-0.048406079 -0.13602109 1.1823869
-0.042762391 -0.13556276 1.1784548
-0.037222728 -0.13534731 1.1766298
-0.03178088 -0.13547374 1.1777732
-0.026224231 -0.13506077 1.1742233
-0.020670678 -0.13444974 1.1689478
-0.01522941 -0.13439241 1.1684824
-0.0098003354 -0.13443696 1.1688995
-0.0043592444 -0.13421856 1.1670274
0.0010652017 -0.13414139 1.1663795
0.0064469348 -0.13331209 1.1591886
0.011757527 -0.13243759 1.1516012
0.017006302 -0.1316324 1.144613
0.022285387 -0.13139009 1.1425159
0.027503204 -0.13094959 1.1386919
0.032644808 -0.13034716 1.1334565
0.037787553 -0.12991619 1.1297084
0.043073818 -0.13002372 1.1306391
0.048388194 -0.13018352 1.1320204
0.053492371 -0.12980196 1.1286902
0.058412984 -0.12908292 1.1224211
0.063003056 -0.12781121 1.1113423
0.068115532 -0.12771167 1.1104513
0.073108271 -0.1274174 1.1078618
0.078145295 -0.12723391 1.1062305
0.083273001 -0.12721156 1.1059943
0.088676102 -0.12758793 1.1092187
0.093856879 -0.12762053 1.109448
0.09890604 -0.12748002 1.1081654
0.1025255 -0.12560181 1.0917711
0.10108694 -0.11268016 0.97931051
0.10465473 -0.1116275 0.97008079
0.10851976 -0.11096571 0.96424133
0.11323705 -0.1111932 0.96612126
0.11566096 -0.10923722 0.94902235
0.11945518 -0.10867159 0.94399613
0.12427849 -0.1090489 0.94715154
0.12761657 -0.10814169 0.93914062
0.1316721 -0.10788228 0.9367466
0.13596252 -0.10782564 0.93610269
0.14008519 -0.1076435 0.93435806
0.14438701 -0.1076057 0.93385488
0.14852256 -0.1074497 0.93231368
0.15250637 -0.10719577 0.92991042
0.15656419 -0.10700632 0.92805368
0.16069354 -0.10687447 0.92668331
0.16495417 -0.10683443 0.92609471
0.16893664 -0.10662071 0.92398578
0.17267825 -0.10626927 0.92066896
0.17632216 -0.10587608 0.91697609
0.1799819 -0.10551067 0.91350895
0.18442312 -0.10560954 0.9140448
0.1875371 -0.10496097 0.90809524
0.19103126 -0.10454902 0.90417755
0.1944254 -0.10410121 0.89993364
0.19833443 -0.10394207 0.89816749
0.20150195 -0.10340886 0.89315128
0.20540176 -0.10326534 0.89148271
0.20901082 -0.10298413 0.88860571
0.21284117 -0.10282064 0.88672435
0.21717197 -0.1029004 0.88691831
0.22218254 -0.10329301 0.88978291
0.22626041 -0.10324534 0.88882923
0.23069339 -0.10335833 0.88923323
0.23463875 -0.10325255 0.88772976
0.2387889 -0.10323884 0.88699234
0.24278791 -0.10316121 0.8856796
0.24747068 -0.10337164 0.88681161
0.25124821 -0.10320304 0.88466406
0.25491196 -0.10299381 0.88214213
0.25945801 -0.10314188 0.88265187
0.26445758 -0.1034625 0.88460469
0.26923591 -0.10368771 0.88570738
0.27121675 -0.10284502 0.87766218
0.27857557 -0.10403609 0.88693833
0.28343582 -0.10427222 0.88802922
0.28944257 -0.10491681 0.89255828
0.29501399 -0.105387 0.89556015
0.30265719 -0.10657307 0.90459603
0.30747733 -0.10674547 0.90498036
0.31349275 -0.10732204 0.90874904
0.32094607 -0.10836813 0.91644144
0.32910088 -0.10961935 0.92580873
0.33948764 -0.11157046 0.9410156
0.34792873 -0.10719083 0.89746469
0.37092981 -0.11013967 0.91769332
0.40015134 -0.10955214 0.90164405
0.40502065 -0.1096627 0.90091276
-0.25854802 -0.055564515 0.46119821
-0.25594702 -0.055516921 0.4610354
-0.25505129 -0.055841733 0.46403581
-0.25250766 -0.055808391 0.46412876
-0.25022069 -0.055831604 0.46475616
-0.24881366 -0.0560534 0.46709976
-0.24669111 -0.056116644 0.46818236
-0.24570744 -0.056442633 0.47151479
-0.24417308 -0.056647208 0.47388864
-0.24021541 -0.056287903 0.47158867
-0.23766778 -0.056254912 0.47205836
-0.23502211 -0.056197654 0.47235912
-0.22964875 -0.055480067 0.46712971
-0.22597934 -0.055163275 0.46528631
-0.22429566 -0.055329472 0.46753654
-0.22294329 -0.055581626 0.47053751
-0.22080855 -0.055641856 0.47193259
-0.21911547 -0.055815712 0.47430518
-0.21663412 -0.055790193 0.47499263
-0.21291772 -0.055442303 0.47293264
-0.209784 -0.055239815 0.47210431
-0.20655899 -0.055008229 0.47101781
-0.2039474 -0.054936357 0.47128901
-0.20194994 -0.055029955 0.47297308
-0.19964473 -0.055040706 0.4739376
-0.19775173 -0.055166505 0.47588414
-0.19529162 -0.055135023 0.47646296
-0.19144085 -0.054705184 0.4735786
-0.18787885 -0.0543481 0.47129732
-0.18433571 -0.05398744 0.46895891
-0.18024719 -0.053455755 0.46510568
-0.17472042 -0.052478328 0.45733604
-0.17246136 -0.052469593 0.45797744
-0.17016946 -0.052450325 0.458509
-0.16777298 -0.052397709 0.45873034
-0.16541772 -0.052356552 0.45903268
-0.16297588 -0.052286323 0.45906076
-0.16081764 -0.052306227 0.45986122
-0.15851277 -0.05227815 0.46022156
-0.15622929 -0.052256275 0.46061769
-0.1626045 -0.055171482 0.48691654
-0.16200276 -0.055769809 0.49278674
-0.18821277 -0.068808943 0.61068004
-0.1870382 -0.069455333 0.61703557
-0.18627459 -0.070277214 0.62494081
-0.18206304 -0.06980364 0.62130761
-0.17916143 -0.069824763 0.62205219
-0.17696534 -0.070125975 0.62527364
-0.17351612 -0.0699322 0.62406182
-0.16762772 -0.068731375 0.61383331
-0.16467386 -0.068712443 0.61413211
-0.15753648 -0.066915609 0.59850991
-0.15565062 -0.067324311 0.6025874
-0.15219629 -0.067056984 0.60059762
-0.14776368 -0.066340134 0.59455895
-0.14457686 -0.066165484 0.59335816
-0.15501393 -0.07234174 0.64912659
-0.15538225 -0.073972963 0.66413623
-0.20397308 -0.12155157 1.0960476
-0.19807719 -0.12108445 1.092189
-0.1927065 -0.12092184 1.0910565
-0.18756355 -0.12089685 1.0911473
-0.1819649 -0.12056819 1.0884793
-0.17609912 -0.12003822 1.0839756
-0.17114536 -0.12011664 1.0849485
-0.16646789 -0.1203993 1.0877526
-0.16135585 -0.12037525 1.0877719
-0.15616339 -0.12028737 1.0872002
-0.15125728 -0.12042122 1.0886194
-0.14658612 -0.12075759 1.091858
-0.14229956 -0.12144609 1.0982698
-0.13806617 -0.12223274 1.1055604
-0.13291724 -0.12223807 1.1057744
-0.12749474 -0.12198173 1.1036105
-0.12202905 -0.12166043 1.1008487
-0.11697999 -0.12174419 1.1017423
-0.11171452 -0.1215997 1.1005615
-0.10642695 -0.12141573 1.0990151
-0.10605293 -0.13386418 1.2119303
-0.10099591 -0.13464454 1.2191023
-0.095548362 -0.13496576 1.2221111
-0.089651905 -0.13465291 1.2193714
-0.083165027 -0.13335067 1.2076648
-0.077014193 -0.13243705 1.1994704
-0.070991635 -0.13161807 1.1921266
-0.065205149 -0.13113451 1.1878151
-0.05952118 -0.13078615 1.1847228
-0.053980388 -0.13071288 1.1841178
-0.048402939 -0.13052355 1.182457
-0.042745985 -0.13004316 1.1781554
-0.037235685 -0.1299327 1.1772007
-0.031752355 -0.12989369 1.17689
-0.026154863 -0.12927334 1.1713085
-0.020672496 -0.12904447 1.1692703
-0.015223375 -0.1289326 1.1682892
-0.0097791376 -0.12875919 1.1667472
-0.0043596118 -0.12888075 1.1678751
0.0010687422 -0.12884535 1.1675775
0.0064587812 -0.12811115 1.1609442
0.011804711 -0.12756965 1.1560543
0.017095106 -0.12695508 1.1504987
0.022290826 -0.12609817 1.1427439
0.027562428 -0.12591797 1.1411188
0.03272754 -0.12538813 1.1363213
0.037850689 -0.12486722 1.1316015
0.043073501 -0.12476213 1.1306465
0.048324406 -0.12475245 1.1305526
0.053330053 -0.12417364 1.1252971
0.058379125 -0.12379031 1.1218089
0.063361265 -0.1233395 1.1177051
0.068313852 -0.12290378 1.1137335
0.073357165 -0.12268115 1.1116881
0.078290634 -0.12231609 1.1083473
0.083446294 -0.12232176 1.1083602
0.088612922 -0.12234183 1.1084977
0.093833193 -0.12242956 1.1092422
0.098880447 -0.12229409 1.1079576
0.098359063 -0.11017044 0.99799782
0.10166728 -0.10874518 0.98501623
0.10496397 -0.1074309 0.97303432
0.10911252 -0.10706098 0.96959919
0.11227513 -0.10579132 0.95800883
0.11546765 -0.10464556 0.94753414
0.12014014 -0.10487593 0.94951177
0.12375145 -0.10419629 0.94324148
0.12779833 -0.10391728 0.94058937
0.13186876 -0.10367516 0.93826145
0.13561811 -0.10320407 0.93385148
0.13969138 -0.10300098 0.93185645
0.14406371 -0.10302384 0.93189406
0.14825954 -0.10292269 0.93079758
0.15244615 -0.10282096 0.92968345
0.15640694 -0.10257659 0.92726678
0.16032197 -0.102316 0.92469084
0.16437836 -0.10215678 0.92301738
0.16886263 -0.10226468 0.92374229
0.17292728 -0.10211924 0.92216349
0.1765931 -0.10175094 0.91855687
0.1803887 -0.10147292 0.91575086
0.1834605 -0.10080994 0.90945572
0.18682356 -0.10033324 0.904827
0.19017461 -0.099871188 0.90031493
0.19387841 -0.099610224 0.89759916
0.19739941 -0.099268243 0.89413613
0.20134231 -0.099148072 0.89265245
0.20510617 -0.098946281 0.89041436
0.20859019 -0.098620042 0.88703734
0.21221842 -0.098373249 0.88435566
0.21681699 -0.098576941 0.88570124
0.2210329 -0.098602079 0.88541788
0.2256238 -0.098790325 0.88657445
0.22951013 -0.09866865 0.88492441
0.23364997 -0.098658197 0.88424742
0.23772806 -0.098622337 0.88331705
0.24179064 -0.09858118 0.88231337
0.2458154 -0.098526083 0.88115823
0.25012976 -0.098586783 0.88101089
0.25417408 -0.098540634 0.87988031
0.25877306 -0.098707363 0.88062048
0.26303601 -0.098742455 0.88015521
0.26608336 -0.098327063 0.87564749
0.26913664 -0.097926408 0.87124729
0.27892545 -0.099951342 0.88838208
0.2841785 -0.10031452 0.8906936
0.28834412 -0.10028862 0.88951516
0.29244918 -0.1002425 0.88812494
0.30020756 -0.10143185 0.89763576
0.30597419 -0.10192401 0.90092576
0.31332478 -0.10292259 0.90864187
0.31975853 -0.10359652 0.91343892
0.32689589 -0.1044769 0.92000377
0.33439896 -0.10544886 0.92731804
0.35277122 -0.10560358 0.92334425
0.36209968 -0.1057153 0.92144984
0.39168677 -0.10896051 0.94345248
0.41299927 -0.10729134 0.91910446
-0.26151878 -0.053825635 0.46654078
-0.25663018 -0.053310759 0.46232414
-0.25522247 -0.053516053 0.46442088
-0.25352952 -0.053664766 0.46609583
-0.25138441 -0.053719617 0.46702108
-0.24701497 -0.053295512 0.46383965
-0.24604754 -0.053604189 0.46709159
-0.24569492 -0.054054089 0.47163546
-0.24528977 -0.054501116 0.47621408
-0.24316131 -0.054570224 0.47754189
-0.23759086 -0.053860296 0.47208366
-0.23386864 -0.053558957 0.47022736
-0.22842416 -0.052852716 0.46483144
-0.22511247 -0.052630205 0.4637011
-0.22398894 -0.052919775 0.46710461
-0.22226298 -0.053071499 0.46931568
-0.22200251 -0.05357999 0.47470573
-0.22007218 -0.053691957 0.47660229
-0.21462718 -0.052939262 0.47081873
-0.21199214 -0.052870438 0.47110596
-0.20887616 -0.052678566 0.47029182
-0.20561196 -0.052444335 0.46908936
-0.20473875 -0.05282139 0.47335145
-0.2024485 -0.052837159 0.47437504
-0.19998814 -0.052808184 0.47498703
-0.19690904 -0.05261299 0.474089
-0.19452722 -0.05260146 0.47483
-0.19191436 -0.052526217 0.47498026
-0.18724555 -0.05187929 0.46993479
-0.18359585 -0.051501926 0.46729937
-0.18084002 -0.051368758 0.46685541
-0.17475516 -0.05027429 0.45763996
-0.1725091 -0.050269984 0.45831481
-0.17016992 -0.05023789 0.45871821
-0.1678602 -0.050213579 0.45917392
-0.16530846 -0.050115064 0.45893133
-0.16305162 -0.050104331 0.45947292
-0.16075197 -0.050079774 0.45986906
-0.15872742 -0.050141271 0.46103749
-0.15684997 -0.050251469 0.46263748
-0.16042978 -0.052138247 0.48059782
-0.16177216 -0.053342197 0.4922798
-0.1729337 -0.05873736 0.54329419
-0.17395514 -0.059985973 0.55543697
-0.18411165 -0.065486461 0.60759741
-0.18425801 -0.06658604 0.61839092
-0.18150842 -0.066657625 0.61962616
-0.17894283 -0.066800065 0.62150025
-0.17600735 -0.066806674 0.62209111
-0.17188749 -0.0663561 0.61840087
-0.16546479 -0.064985253 0.60610098
-0.16598031 -0.066338874 0.61919194
-0.15628317 -0.063585803 0.59392399
-0.15333368 -0.063527398 0.59378892
-0.15271795 -0.064451531 0.60282582
-0.14767599 -0.063507117 0.59436905
-0.14767654 -0.064736448 0.60624146
-0.21557604 -0.1171589 1.1023421
-0.20922321 -0.11649764 1.0965072
-0.20111886 -0.11480295 1.0809177
-0.19595803 -0.11474405 1.0807054
-0.19211696 -0.11547498 1.0879155
-0.18723448 -0.11560237 1.0894244
-0.18200618 -0.1155171 1.0889122
-0.17610055 -0.11498434 1.0841641
-0.17085616 -0.11486422 1.0832897
-0.16606554 -0.11505084 1.0852933
-0.1608718 -0.1149608 1.0846733
-0.155334 -0.11461075 1.0815856
-0.15030715 -0.11462648 1.0819365
-0.14560229 -0.11489706 1.084681
-0.14163293 -0.11578809 1.093273
-0.13740005 -0.11652187 1.1003717
-0.13275063 -0.11694527 1.1045303
-0.1271874 -0.11656498 1.101088
-0.1217284 -0.11625192 1.0982705
-0.11657898 -0.11621967 1.0980963
-0.11148968 -0.1162468 1.0984746
-0.10631404 -0.11618178 1.0979744
-0.10570976 -0.12781516 1.2081418
-0.10139968 -0.12949347 1.2241089
-0.095666684 -0.12944588 1.2237554
-0.08958751 -0.12889375 1.2186253
-0.083130486 -0.12768619 1.2072908
-0.0771681 -0.12711796 1.2019947
-0.071189851 -0.12643225 1.1955816
-0.065362446 -0.12592047 1.1908075
-0.0595739 -0.12539519 1.1859008
-0.053894199 -0.12501468 1.1823585
-0.048353169 -0.12490533 1.1813763
-0.042762551 -0.12462285 1.1787531
-0.037246756 -0.12450679 1.1776999
-0.031785004 -0.12456178 1.1782614
-0.026266353 -0.12436949 1.1764805
-0.020709803 -0.12384845 1.1715866
-0.015246161 -0.12370822 1.1702917
-0.0097805597 -0.12338597 1.1672721
-0.0043498031 -0.12324452 1.1659597
0.001068757 -0.12314408 1.1650324
0.0064849332 -0.12316807 1.1652799
0.011835252 -0.12248956 1.1588781
0.017126841 -0.12181831 1.1525419
0.022381471 -0.12126701 1.1473374
0.027637755 -0.12093532 1.144208
0.032846339 -0.12053581 1.1404337
0.037937142 -0.11987524 1.1341861
0.043084007 -0.11953145 1.1309323
0.048249926 -0.11930952 1.1288283
0.053221483 -0.11869769 1.1230314
0.058276419 -0.11836445 1.1198666
0.06334047 -0.11810282 1.1173753
0.068496078 -0.11803856 1.1167469
0.073569097 -0.11785099 1.1149472
0.078655861 -0.11770859 1.1135699
0.083678082 -0.11749309 1.111496
0.088799477 -0.11743368 1.110893
0.093838356 -0.11727757 1.1093694
0.098941207 -0.11721341 1.1087093
0.10400081 -0.11710679 1.1076406
0.10157189 -0.10406578 0.98416758
0.10572073 -0.10364655 0.98012918
0.10901886 -0.10246229 0.9688499
0.11276772 -0.10177875 0.96229881
0.11619233 -0.10086576 0.95357132
0.11973406 -0.10011776 0.94639653
0.12342936 -0.099546522 0.94088465
0.1276854 -0.099451058 0.93986106
0.13184771 -0.099291191 0.93821871
0.13525884 -0.098593906 0.93148893
0.13917606 -0.098297209 0.92853427
0.14353284 -0.098319381 0.92858028
0.1479305 -0.098367296 0.92885739
0.15205327 -0.098234758 0.92741781
0.15596963 -0.097979717 0.92480934
0.15981413 -0.097694337 0.92190188
0.16394824 -0.097596131 0.9207471
0.16858265 -0.097793028 0.92236143
0.17310065 -0.097914129 0.92324436
0.17670894 -0.097527109 0.91932076
0.18018888 -0.097089119 0.91490251
0.18366045 -0.09666688 0.91061795
0.18590052 -0.095630109 0.90053117
0.18954924 -0.095347658 0.89753413
0.19335525 -0.095154718 0.8953625
0.19734092 -0.09505634 0.89406222
0.20136099 -0.094978087 0.892932
0.20502773 -0.094739608 0.89027596
0.20837265 -0.094364747 0.88631964
0.21235253 -0.0942863 0.88512766
0.21615899 -0.094135165 0.88323212
0.22036125 -0.094158687 0.88295263
0.22431141 -0.094075441 0.8816486
0.22837326 -0.094041027 0.88077837
0.23293927 -0.094211586 0.88180214
0.23726213 -0.094279356 0.88183635
0.24117638 -0.094185054 0.88032854
0.24464564 -0.093922921 0.87722737
0.24858946 -0.093848504 0.87585425
0.2529076 -0.093915321 0.87577122
0.2575978 -0.094115749 0.87690318
0.26123738 -0.093931884 0.87442493
0.26490057 -0.093761884 0.87204903
0.27021816 -0.094173528 0.87505007
0.27891311 -0.09573172 0.8886559
0.28524342 -0.09644369 0.89435345
0.28764826 -0.09582682 0.88769478
0.29333198 -0.096304096 0.89114022
0.29809931 -0.096470974 0.89167345
0.304252 -0.097074933 0.89620465
0.31015208 -0.09758243 0.89979863
0.31899026 -0.09898752 0.91161317
0.32450703 -0.09933766 0.91365677
0.33201009 -0.10027814 0.92107916
0.33722886 -0.10051276 0.92196858
0.33804625 -0.099446237 0.91089869
0.347063 -0.10078797 0.92184973
0.35141772 -0.099497043 0.90729845
0.3657774 -0.098620459 0.89349866
0.40497878 -0.1007641 0.90167338
0.40390378 -0.09727563 0.86571312
0.40241194 -0.095891349 0.85185808
-0.25587747 -0.050338414 0.45652008
-0.26005435 -0.051636249 0.46855205
-0.2580798 -0.051725492 0.46969423
-0.2568813 -0.051973365 0.47234657
-0.25085121 -0.051238984 0.46613184
-0.24793534 -0.051132564 0.4656823
-0.24497207 -0.051014088 0.46517679
-0.24537766 -0.0516016 0.47116682
-0.24541208 -0.05212184 0.47660497
-0.24255565 -0.052032236 0.47651634
-0.24019329 -0.052047715 0.47742847
-0.23260733 -0.050919864 0.46787053
-0.22874692 -0.050592504 0.46567431
-0.22599111 -0.05050499 0.46570382
-0.22457567 -0.050718155 0.4685283
-0.22387154 -0.051098038 0.47291932
-0.22176847 -0.05116317 0.47441751
-0.21703768 -0.050616696 0.4702445
-0.21378538 -0.050406605 0.46918842
-0.21117944 -0.050345741 0.46951842
-0.2080173 -0.050149206 0.4685778
-0.20714034 -0.050505199 0.47279894
-0.20497493 -0.050551403 0.47412124
-0.20281322 -0.050599407 0.47545388
-0.19911404 -0.050260257 0.47313362
-0.19638671 -0.050161056 0.4730531
-0.19399597 -0.050146289 0.47375378
-0.1916697 -0.050147839 0.47459418
-0.18633047 -0.049351212 0.46785244
-0.18416964 -0.049386855 0.46897247
-0.17822543 -0.048395872 0.46031213
-0.17487147 -0.048091721 0.45814756
-0.17298442 -0.048188161 0.45977861
-0.17066199 -0.048164085 0.46024299
-0.16783078 -0.047993697 0.45928845
-0.16561316 -0.047996379 0.45996955
-0.16308548 -0.04790787 0.4597573
-0.16072619 -0.047866911 0.45998114
-0.15848793 -0.047861166 0.46052462
-0.16284031 -0.04987365 0.48049346
-0.1601643 -0.049760312 0.47998595
-0.17530175 -0.056920692 0.55093217
-0.17934041 -0.05912086 0.5728339
-0.1801528 -0.060308993 0.58494306
-0.18381451 -0.062503189 0.6068216
-0.18449938 -0.063738942 0.61940545
-0.18197158 -0.063886724 0.62140757
-0.17883451 -0.063821778 0.62131995
-0.17510499 -0.063539453 0.61909246
-0.1710172 -0.063115068 0.61545479
-0.16844817 -0.063246019 0.61721039
-0.16561779 -0.063281529 0.61801654
-0.16149379 -0.062814966 0.61389744
-0.15334438 -0.060736738 0.59399211
-0.15112083 -0.060971718 0.59667987
-0.14712428 -0.060486529 0.59230179
-0.14753066 -0.061827566 0.60579526
-0.21236713 -0.11033975 1.0861408
-0.20776263 -0.11059747 1.089054
-0.20015305 -0.1092279 1.0759205
-0.19514051 -0.10924119 1.0763849
-0.1912467 -0.1098977 1.083171
-0.18674485 -0.11023074 1.0867543
-0.18133213 -0.11002937 1.0850526
-0.17576687 -0.10972089 1.0822772
-0.1703562 -0.10949318 1.0802821
-0.16504712 -0.10931853 1.0787947
-0.16000175 -0.10931274 1.0789596
-0.15513873 -0.10943487 1.0803741
-0.14993407 -0.10931582 1.0793948
-0.14483325 -0.10926649 1.0790915
-0.14035253 -0.10969796 1.0835259
-0.13622415 -0.11044698 1.0910878
-0.13215925 -0.11130724 1.0997403
-0.1269168 -0.11120481 1.0988724
-0.12138143 -0.11082599 1.0952637
-0.11627505 -0.11082243 1.0953541
-0.11126596 -0.11091521 1.0963885
-0.10622187 -0.11097994 1.0971379
-0.10129291 -0.11117724 1.099191
-0.10194381 -0.12446795 1.2308006
-0.09577065 -0.12389284 1.2252063
-0.089715689 -0.12340707 1.2204878
-0.083627746 -0.12280674 1.2146302
-0.077123158 -0.12146275 1.2014108
-0.071497031 -0.12139989 1.2008572
-0.065516986 -0.12067403 1.1937401
-0.059694596 -0.12013052 1.188422
-0.054016788 -0.1197962 1.1851685
-0.048309539 -0.11931266 1.1804349
-0.042739909 -0.11908802 1.1782588
-0.037292417 -0.11918706 1.1792818
-0.031817485 -0.11921672 1.1796154
-0.026253989 -0.11885702 1.176093
-0.020705111 -0.11839072 1.1715127
-0.015219083 -0.11807813 1.1684505
-0.0097881779 -0.11808196 1.1685166
-0.0043491293 -0.11787116 1.1664562
0.0010717625 -0.11780833 1.1658577
0.0064842976 -0.11770056 1.1648116
0.011823876 -0.11697001 1.1575993
0.017123163 -0.11642297 1.1522006
0.022444103 -0.11624902 1.1504917
0.027703796 -0.11588605 1.1469092
0.032988463 -0.11572795 1.1453513
0.03801059 -0.11482082 1.1363771
0.043174792 -0.11451187 1.1333202
0.048264146 -0.11409315 1.1291739
0.05337809 -0.11380901 1.1263555
0.058308143 -0.11321853 1.1205019
0.063421465 -0.11305147 1.118835
0.068556435 -0.11294536 1.117767
0.073739968 -0.11292849 1.1175778
0.07890936 -0.11289353 1.1172047
0.084059104 -0.11283641 1.1166072
0.088997841 -0.11251906 1.1134292
0.093900621 -0.11219352 1.1101644
0.098898225 -0.11200918 1.108291
0.10389632 -0.1118435 1.1065956
0.1080609 -0.11083839 1.0965886
0.10629035 -0.099621721 0.98548281
0.11183338 -0.10048457 0.99394
0.11279255 -0.097323596 0.96258968
0.11659361 -0.096762374 0.95694774
0.11959457 -0.095602699 0.94538015
0.12319188 -0.094984971 0.93916446
0.12718511 -0.094704248 0.93627268
0.13103499 -0.094338782 0.9325338
0.13449448 -0.093724579 0.92632711
0.1386008 -0.093585119 0.92480278
0.14288887 -0.093572959 0.92452532
0.14727084 -0.093621068 0.92483127
0.1515085 -0.093577169 0.92421585
0.15543635 -0.093349479 0.9217726
0.15938926 -0.093148522 0.91958076
0.16359517 -0.093101948 0.9188993
0.16819109 -0.093273863 0.92035949
0.17236724 -0.093210094 0.91947824
0.17653804 -0.093146414 0.91858226
0.18043202 -0.092943028 0.91629279
0.18354841 -0.092357635 0.91022259
0.18631673 -0.091627412 0.90271157
0.1887632 -0.090774618 0.8939805
0.19250324 -0.090567201 0.89159042
0.19707066 -0.090749413 0.89301699
0.20100786 -0.090639718 0.89155066
0.20434542 -0.090269439 0.88750285
0.20812298 -0.090104252 0.88545275
0.2120453 -0.090006806 0.88404787
0.21589832 -0.08988408 0.88237333
0.21862645 -0.089306295 0.87621236
0.22297883 -0.089400932 0.8766278
0.22783044 -0.089688495 0.87890846
0.232116 -0.089746751 0.87891519
0.2370802 -0.090060599 0.88139683
0.24061267 -0.089828938 0.87851304
0.24397855 -0.089543819 0.87508291
0.24772376 -0.089404888 0.87305743
0.25154695 -0.089298002 0.8713184
0.25544399 -0.089220203 0.86983627
0.2601164 -0.089411162 0.87094426
0.2649723 -0.089658089 0.87256372
0.27046102 -0.090108052 0.87612265
0.2783736 -0.091339529 0.88723338
0.28432187 -0.091899097 0.89176852
0.28984809 -0.092307627 0.89479578
0.29308537 -0.091985688 0.89070803
0.29800904 -0.09219446 0.89172733
0.30222744 -0.092182048 0.89057112
0.30801252 -0.092640944 0.89392906
0.31439489 -0.093264237 0.89882612
0.32489294 -0.095074825 0.91510117
0.32974416 -0.095206469 0.91515702
0.33606267 -0.095752478 0.91915196
0.34605715 -0.094849832 0.90655529
0.35293296 -0.095522821 0.91160017
0.36268401 -0.096947476 0.92375517
0.36254299 -0.095725164 0.91065449
0.36257231 -0.094576553 0.89826161
0.36367372 -0.093731418 0.88875437
0.35269457 -0.08982911 0.85030967
0.35382032 -0.089064658 0.84162045
-0.26657346 -0.050019186 0.47564837
-0.2625826 -0.049729154 0.4731667
-0.26145625 -0.049981177 0.47591302
-0.25664401 -0.049526602 0.47199705
-0.25329235 -0.049347792 0.47076774
-0.24889955 -0.048960619 0.46760505
-0.24646591 -0.048954915 0.4681372
-0.24302427 -0.048746783 0.46678269
-0.24497637 -0.049627036 0.47590688
-0.24339724 -0.049802288 0.4783285
-0.23843729 -0.049282156 0.47410464
-0.23474443 -0.049015779 0.47234303
-0.22976899 -0.048473142 0.46793458
-0.23165266 -0.049381141 0.4775604
-0.22739685 -0.048985563 0.47460833
-0.22471817 -0.048924726 0.47490701
-0.22282445 -0.049035128 0.47688061
-0.21949938 -0.048829321 0.47578511
-0.21436086 -0.04821093 0.47065872
-0.21244605 -0.048311677 0.47254464
-0.21206927 -0.048768181 0.47791907
-0.20835942 -0.04845966 0.47579512
-0.2049167 -0.048206706 0.4741998
-0.20150834 -0.04795583 0.47260714
-0.19862132 -0.047824394 0.47217429
-0.19616637 -0.047794912 0.4727332
-0.19402504 -0.047841851 0.47403485
-0.19163179 -0.047826864 0.47470894
-0.18815239 -0.047536895 0.47263303
-0.18416442 -0.047109418 0.46916151
-0.1770649 -0.045864977 0.45750973
-0.17505243 -0.04592308 0.45881471
-0.17317651 -0.046018798 0.46048033
-0.17086197 -0.045998767 0.46097097
-0.16832596 -0.045917612 0.4608292
-0.16578503 -0.045832742 0.46062949
-0.16330275 -0.04576182 0.46054927
-0.16079399 -0.045681249 0.46035147
-0.15816963 -0.045564953 0.45977262
-0.16446054 -0.048049945 0.48545361
-0.16259405 -0.048188694 0.48744401
-0.18283315 -0.055793356 0.56566465
-0.18255314 -0.05740894 0.58329022
-0.1865467 -0.059574075 0.60590124
-0.18749782 -0.060820285 0.61917865
-0.18674798 -0.061545555 0.62715012
-0.18307711 -0.06131589 0.62537354
-0.17851596 -0.060775347 0.62039787
-0.17549346 -0.060749087 0.62064642
-0.17096317 -0.060190886 0.61543512
-0.16761608 -0.06003692 0.61433178
-0.16716678 -0.060933579 0.62396526
-0.16570523 -0.061486702 0.63007265
-0.15615864 -0.059004929 0.60504872
-0.14916852 -0.057414401 0.58911896
-0.15068263 -0.059098694 0.60677505
-0.15082477 -0.060299508 0.61946863
-0.21175288 -0.10495982 1.0831925
-0.20585465 -0.10454138 1.07924
-0.19984107 -0.10404152 1.0744239
-0.19440608 -0.10382454 1.0725086
-0.18978654 -0.10404278 1.075071
-0.18568048 -0.10456175 1.0807259
-0.18066338 -0.10458206 1.0812116
-0.17539109 -0.10445128 1.080119
-0.16977184 -0.10409966 1.0767266
-0.16436394 -0.10385983 1.0744748
-0.15949534 -0.1039561 1.0756859
-0.15488082 -0.10422926 1.0787153
-0.14989588 -0.10426283 1.0792532
-0.14459476 -0.10407084 1.0774437
-0.1401037 -0.10446873 1.0817307
-0.13588725 -0.10510843 1.0885122
-0.13121861 -0.10543408 1.092033
-0.12622075 -0.10551047 1.0929626
-0.12124322 -0.1056107 1.0941302
-0.11627129 -0.10572443 1.0954295
-0.11125286 -0.10580405 1.0963675
-0.10609458 -0.10575159 1.0959293
-0.10099978 -0.10575993 1.0961139
-0.097424805 -0.10744493 1.1136705
-0.10054457 -0.1171172 1.214018
-0.096169204 -0.11869051 1.2304158
-0.090070315 -0.11820078 1.2254213
-0.083858505 -0.11748623 1.2180899
-0.077835664 -0.11695157 1.2126174
-0.071987927 -0.11661657 1.2092097
-0.066085026 -0.11612739 1.2041976
-0.059804041 -0.1148212 1.1907092
-0.054150254 -0.11457499 1.1882081
-0.04842985 -0.11411534 1.1834892
-0.042769451 -0.11369675 1.1791927
-0.037292052 -0.1137125 1.1793976
-0.031781085 -0.11361296 1.1784039
-0.026149863 -0.11295182 1.1715819
-0.020653764 -0.11267909 1.1687859
-0.015211664 -0.11261036 1.168103
-0.009793682 -0.11274134 1.1694895
-0.0043475535 -0.11246766 1.166676
0.0010733115 -0.11232357 1.165204
0.0064720181 -0.11203816 1.1622639
0.011831303 -0.11164128 1.158165
0.017176071 -0.11139893 1.1556666
0.022475306 -0.11104737 1.1520326
0.027808078 -0.11096512 1.15119
0.032974698 -0.11035348 1.1448528
0.038083769 -0.10974603 1.138556
0.043196287 -0.10929552 1.1338847
0.048367981 -0.10907644 1.1316109
0.053508975 -0.10883784 1.1291316
0.058688164 -0.10871258 1.1278245
0.063643016 -0.10822633 1.1227686
0.068613589 -0.10783838 1.1187288
0.073760368 -0.10776246 1.1179216
0.079048254 -0.107889 1.1192104
0.084232002 -0.1078665 1.1189477
0.089291662 -0.1076968 1.1171529
0.094146796 -0.10731255 1.1131274
0.099016331 -0.10698374 1.1096706
0.10387928 -0.10668062 1.1064746
0.10826636 -0.10594031 1.0987378
0.11349891 -0.09728945 1.008814
0.11387337 -0.093735896 0.97188634
0.11723845 -0.092821322 0.96231627
0.12013248 -0.091614641 0.94971138
0.12391493 -0.091146916 0.94475967
0.12665385 -0.089969836 0.93244779
0.12946934 -0.088923186 0.92148083
0.13381435 -0.088960357 0.92173624
0.137733 -0.088720426 0.91911024
0.14192575 -0.088666052 0.91839582
0.14647847 -0.088833034 0.91996211
0.15097921 -0.088959724 0.92109847
0.15496525 -0.088784404 0.91909486
0.1592391 -0.088778809 0.91883516
0.16340931 -0.088717088 0.91798085
0.16771944 -0.088732377 0.91790897
0.17169324 -0.088573262 0.91601789
0.17602377 -0.088601276 0.9160468
0.18030912 -0.088605598 0.91581398
0.18370731 -0.088183701 0.91116041
0.18633127 -0.087417535 0.90293592
0.18833983 -0.086402804 0.89213258
0.19204625 -0.086193934 0.88963604
0.19604541 -0.086122349 0.88853842
0.19977874 -0.085939221 0.88627142
0.2032264 -0.085643023 0.88282007
0.20767097 -0.08577019 0.88371265
0.21178293 -0.085757524 0.88314229
0.21525139 -0.085489608 0.87992263
0.21884739 -0.08528132 0.87729639
0.22284873 -0.085235573 0.87632036
0.22775905 -0.08553268 0.87884343
0.23301405 -0.085946165 0.88253301
0.23654227 -0.085719228 0.8796196
0.24051209 -0.085657179 0.87837416
0.24406818 -0.085452206 0.87563801
0.24805403 -0.085401826 0.87446064
0.2516318 -0.085214727 0.87185729
0.25551403 -0.085134916 0.87032521
0.25910214 -0.084960982 0.86780405
0.26467872 -0.085434161 0.87186015
0.27087477 -0.086089469 0.87773418
0.27609938 -0.086420663 0.88026297
0.28332356 -0.087358281 0.8889243
0.28888035 -0.087761588 0.89210248
0.29246685 -0.08756309 0.88912809
0.2975181 -0.087802321 0.89056462
0.30232641 -0.087963924 0.89117533
0.30794433 -0.088353075 0.89405072
0.3141672 -0.088902541 0.89850259
0.32219875 -0.089941815 0.90784967
0.33037001 -0.090991572 0.91724014
0.33672279 -0.091519177 0.92131084
0.34362987 -0.092181519 0.92668575
0.35339326 -0.091238432 0.91316003
0.36032817 -0.091877572 0.91813201
0.3646639 -0.091846183 0.91636223
0.36615378 -0.09110719 0.90751475
0.43845278 -0.093285985 0.90642226
-0.2481636 -0.044308659 0.4428418
-0.25967038 -0.046795148 0.46797693
-0.26007965 -0.047309652 0.47347927
-0.25686467 -0.0471683 0.47248772
-0.25375724 -0.047044083 0.47172898
-0.25111654 -0.047004722 0.47187936
-0.2481406 -0.046901111 0.47143865
-0.24551953 -0.04686306 0.47170669
-0.24363941 -0.046966948 0.47345135
-0.24306282 -0.047326583 0.47782376
-0.23923779 -0.047054444 0.47585657
-0.23374751 -0.046445683 0.47050321
-0.23124607 -0.046424165 0.47111577
-0.22890893 -0.046435356 0.4720836
-0.22736001 -0.04660818 0.47471711
-0.2255674 -0.04673402 0.47689271
-0.22340579 -0.046785109 0.47832009
-0.21802057 -0.046154674 0.47277579
-0.21524866 -0.04606948 0.47280642
-0.21322106 -0.046143275 0.47446936
-0.21241347 -0.046485521 0.4788987
-0.20909949 -0.046280596 0.47768906
-0.2040846 -0.045689978 0.47247624
-0.20150577 -0.045637131 0.47280303
-0.19863628 -0.045516253 0.47241098
-0.19660439 -0.045586504 0.47398931
-0.1944357 -0.045626163 0.47523808
-0.19193351 -0.045587383 0.47565484
-0.18849546 -0.045322422 0.47369057
-0.18274327 -0.044487309 0.46573144
-0.17711683 -0.043661926 0.45782885
-0.17555305 -0.043829571 0.46031043
-0.17335694 -0.043841455 0.46114135
-0.17096213 -0.043802582 0.46141988
-0.16846141 -0.043734994 0.46137595
-0.16601101 -0.04367866 0.4614304
-0.16350447 -0.043605652 0.46128833
-0.16077423 -0.043469977 0.4604618
-0.16171339 -0.044336349 0.47024098
-0.16464816 -0.045782074 0.48617697
-0.18580273 -0.054774087 0.58432114
-0.18957619 -0.057619374 0.61593068
-0.19030073 -0.058750123 0.62862408
-0.18809886 -0.058998939 0.63187259
-0.18246911 -0.058162995 0.62347591
-0.17921327 -0.058068428 0.62299609
-0.17533165 -0.057764329 0.62024403
-0.17063208 -0.057175566 0.61440748
-0.16791551 -0.057242181 0.61558962
-0.16788623 -0.058243245 0.62681007
-0.16791795 -0.059301671 0.63864452
-0.1539645 -0.055369254 0.59669155
-0.1502592 -0.055044174 0.59356594
-0.20987384 -0.09901233 1.0737596
-0.20430407 -0.098751239 1.0712838
-0.19877678 -0.098497756 1.0688696
-0.19324675 -0.098229498 1.0662746
-0.18874265 -0.098482013 1.0693152
-0.18484053 -0.099070616 1.0759907
-0.18032807 -0.099355564 1.0793542
-0.17504251 -0.099218391 1.0781165
-0.16963726 -0.099002935 1.0760127
-0.16433138 -0.09883377 1.0743967
-0.15945493 -0.098920055 1.0755441
-0.15474422 -0.099117801 1.0778911
-0.14973676 -0.099132054 1.0782305
-0.14470665 -0.099131458 1.0783967
-0.13976052 -0.099190123 1.0791968
-0.13501352 -0.099399447 1.0816259
-0.13039215 -0.099720761 1.0852644
-0.12605362 -0.10029271 1.0916226
-0.12135287 -0.10061212 1.0952241
-0.11628661 -0.1006429 1.0956756
-0.11112133 -0.10058653 1.0951705
-0.10586994 -0.10044269 1.0937054
-0.10068827 -0.10035346 1.0928276
-0.096241944 -0.10102627 1.1002425
-0.095852599 -0.11260016 1.2264658
-0.089996368 -0.11241381 1.224515
-0.084168941 -0.11224027 1.2226979
-0.078128293 -0.11173619 1.2172744
-0.072194442 -0.11131755 1.2127767
-0.066249363 -0.11080871 1.2072912
-0.060073443 -0.10978325 1.1961724
-0.054276742 -0.10931176 1.191085
-0.048580948 -0.10895889 1.1872864
-0.042880952 -0.10850439 1.182377
-0.037260339 -0.10814598 1.1785113
-0.031622089 -0.10760336 1.1726351
-0.026069162 -0.10718477 1.1681076
-0.020607779 -0.10702047 1.1663488
-0.015195462 -0.10708356 1.1670657
-0.0097513804 -0.10686707 1.1647335
-0.0043354011 -0.10679944 1.1640215
0.0010737648 -0.1067469 1.1634717
0.0064636781 -0.10646658 1.1604371
0.0118372 -0.10629486 1.1585839
0.017187681 -0.10608875 1.1563537
0.022553338 -0.10605247 1.1559724
0.027804207 -0.10559442 1.1509912
0.032995097 -0.1050932 1.1455373
0.038169745 -0.10468677 1.1411136
0.043251134 -0.10415494 1.1353203
0.048398867 -0.10388114 1.1323367
0.053638089 -0.1038381 1.1318656
0.058828495 -0.10371665 1.1305363
0.063929327 -0.10347006 1.1278396
0.068786494 -0.10289629 1.1215726
0.073957115 -0.10283911 1.1209326
0.079243854 -0.10294019 1.1220131
0.0840865 -0.10248743 1.1170521
